# .PCD v.7 - Point Cloud Data file format
VERSION .7
FIELDS x y z intensity
SIZE 4 4 4 4
TYPE F F F F
COUNT 1 1 1 1
WIDTH 2308
HEIGHT 1
VIEWPOINT 0 0 0 1 0 0 0
POINTS 2308
DATA ascii
9.675 2.496 -1.87 4
10.514 2.707 -1.859 4
11.474 2.948 -1.842 4
7.746 2.076 -1.899 6
8.281 2.211 -1.888 3
0 0 0 50
9.627 2.555 -1.871 3
10.467 2.771 -1.861 4
11.437 3.022 -1.847 4
7.708 2.124 -1.898 4
8.245 2.263 -1.889 4
8.893 2.432 -1.886 4
9.599 2.618 -1.875 3
10.415 2.833 -1.862 4
11.359 3.083 -1.845 4
7.672 2.171 -1.898 4
0 0 0 50
8.852 2.486 -1.887 3
9.531 2.669 -1.871 3
10.364 2.895 -1.863 4
11.298 3.148 -1.845 4
7.634 2.217 -1.897 3
8.172 2.363 -1.89 3
8.8 2.536 -1.885 3
9.476 2.721 -1.869 3
10.328 2.958 -1.866 4
11.241 3.213 -1.846 4
7.611 2.266 -1.9 3
0 0 0 50
8.764 2.588 -1.886 3
9.435 2.777 -1.871 3
10.268 3.014 -1.864 3
11.172 3.271 -1.844 4
7.574 2.31 -1.899 3
8.096 2.458 -1.889 3
8.712 2.635 -1.883 3
0 0 0 50
10.218 3.071 -1.865 3
11.137 3.338 -1.848 4
7.544 2.355 -1.9 3
8.072 2.508 -1.892 2
8.69 2.689 -1.887 3
9.37 2.889 -1.875 3
10.171 3.127 -1.865 3
11.062 3.392 -1.845 3
7.515 2.399 -1.901 2
8.038 2.554 -1.892 2
8.648 2.736 -1.886 3
0 0 0 50
10.118 3.179 -1.864 3
11.025 3.455 -1.847 4
7.488 2.442 -1.901 2
8 2.597 -1.891 2
8.623 2.787 -1.888 3
9.272 2.986 -1.872 3
10.084 3.237 -1.865 3
10.977 3.514 -1.848 3
7.465 2.486 -1.903 2
0 0 0 50
8.591 2.834 -1.889 3
9.249 3.04 -1.875 3
10.049 3.292 -1.867 3
10.955 3.578 -1.853 4
7.444 2.529 -1.905 2
7.944 2.685 -1.892 2
8.548 2.877 -1.887 3
9.199 3.085 -1.872 3
9.982 3.336 -1.862 4
10.903 3.633 -1.852 4
0 0 0 50
7.931 2.734 -1.896 2
8.51 2.92 -1.885 3
9.166 3.134 -1.873 3
9.959 3.393 -1.865 4
10.837 3.681 -1.848 4
7.38 2.605 -1.902 2
7.894 2.773 -1.894 2
8.493 2.97 -1.888 3
9.134 3.18 -1.873 3
9.918 3.441 -1.865 3
10.802 3.737 -1.849 5
0 0 0 50
7.878 2.817 -1.896 2
8.464 3.012 -1.888 3
9.107 3.228 -1.874 3
9.878 3.489 -1.863 4
10.767 3.791 -1.85 4
7.337 2.683 -1.903 2
7.829 2.848 -1.89 2
8.442 3.057 -1.889 3
9.082 3.275 -1.874 3
9.837 3.534 -1.862 3
10.745 3.849 -1.852 4
0 0 0 50
7.806 2.888 -1.89 2
8.408 3.095 -1.887 3
9.062 3.322 -1.876 3
9.817 3.586 -1.864 4
10.694 3.894 -1.849 5
7.298 2.757 -1.903 2
7.799 2.931 -1.893 3
8.397 3.141 -1.89 3
9.035 3.365 -1.875 3
0 0 0 50
10.669 3.946 -1.85 5
7.283 2.794 -1.904 2
7.772 2.966 -1.891 3
8.361 3.176 -1.886 3
9.003 3.405 -1.874 3
9.768 3.68 -1.864 4
10.638 3.995 -1.849 4
7.264 2.828 -1.903 2
7.765 3.007 -1.894 3
8.347 3.217 -1.887 3
8.996 3.452 -1.876 3
0 0 0 50
10.634 4.052 -1.852 5
7.246 2.862 -1.902 2
7.741 3.041 -1.892 2
8.342 3.261 -1.89 3
8.97 3.491 -1.874 3
9.73 3.772 -1.864 4
10.615 4.101 -1.853 5
7.235 2.896 -1.903 2
7.737 3.08 -1.894 3
8.321 3.296 -1.888 3
8.96 3.533 -1.875 4
9.718 3.817 -1.865 4
10.586 4.145 -1.85 5
7.233 2.932 -1.905 2
7.726 3.115 -1.894 3
0 0 0 50
8.94 3.57 -1.873 3
9.699 3.859 -1.864 4
10.561 4.188 -1.848 4
7.223 2.964 -1.904 2
7.716 3.149 -1.894 3
8.299 3.37 -1.888 3
8.943 3.615 -1.876 3
9.702 3.907 -1.866 4
10.568 4.24 -1.851 5
7.216 2.995 -1.904 2
7.711 3.183 -1.894 3
8.289 3.404 -1.887 3
8.923 3.648 -1.873 3
9.687 3.945 -1.864 4
0 0 0 50
7.212 3.027 -1.905 2
7.697 3.212 -1.891 3
8.289 3.441 -1.888 3
8.925 3.688 -1.874 3
9.67 3.98 -1.861 4
10.536 4.323 -1.847 4
7.208 3.056 -1.904 2
7.704 3.248 -1.894 2
8.286 3.475 -1.888 3
8.933 3.73 -1.876 4
0 0 0 50
10.542 4.369 -1.848 5
7.208 3.085 -1.904 2
7.7 3.277 -1.893 3
8.288 3.51 -1.888 3
8.925 3.762 -1.874 3
9.69 4.068 -1.865 4
10.555 4.416 -1.849 4
7.202 3.111 -1.903 2
7.701 3.307 -1.893 2
8.292 3.543 -1.888 3
8.924 3.796 -1.873 3
9.69 4.105 -1.864 4
10.555 4.456 -1.847 4
7.209 3.14 -1.903 2
0 0 0 50
8.28 3.567 -1.884 3
8.924 3.828 -1.871 3
9.7 4.143 -1.864 4
10.573 4.501 -1.848 4
7.207 3.163 -1.902 2
7.713 3.366 -1.893 2
8.296 3.602 -1.886 3
8.955 3.87 -1.875 4
9.713 4.181 -1.863 4
10.584 4.541 -1.847 4
7.224 3.193 -1.904 2
7.714 3.391 -1.891 2
0 0 0 50
8.954 3.898 -1.872 4
9.726 4.217 -1.862 4
10.61 4.585 -1.848 3
7.229 3.217 -1.903 2
7.727 3.418 -1.891 2
8.314 3.659 -1.884 3
8.978 3.934 -1.874 4
9.723 4.243 -1.858 4
10.631 4.624 -1.847 3
7.234 3.237 -1.901 2
7.737 3.443 -1.89 2
8.346 3.695 -1.887 3
8.998 3.966 -1.874 3
9.779 4.292 -1.864 3
0 0 0 50
7.254 3.263 -1.902 2
7.751 3.467 -1.89 2
8.351 3.717 -1.884 3
9.011 3.992 -1.872 3
9.794 4.322 -1.862 3
10.678 4.695 -1.844 4
7.264 3.283 -1.901 2
7.77 3.491 -1.89 3
8.385 3.748 -1.887 3
9.028 4.018 -1.87 3
9.81 4.348 -1.859 4
10.714 4.733 -1.844 4
7.282 3.304 -1.901 2
7.793 3.515 -1.89 2
8.385 3.763 -1.881 3
0 0 0 50
9.846 4.382 -1.859 4
10.759 4.772 -1.845 3
7.308 3.326 -1.902 2
7.804 3.532 -1.887 3
8.423 3.793 -1.884 3
9.09 4.075 -1.87 4
9.888 4.416 -1.86 4
10.797 4.805 -1.843 4
7.322 3.342 -1.9 2
7.832 3.554 -1.888 3
8.435 3.809 -1.88 3
9.12 4.099 -1.869 4
9.926 4.444 -1.86 4
10.842 4.839 -1.843 3
7.341 3.357 -1.899 2
0 0 0 50
8.471 3.832 -1.881 3
9.148 4.12 -1.868 3
9.967 4.472 -1.859 4
10.878 4.865 -1.84 4
7.37 3.374 -1.9 2
7.878 3.587 -1.885 2
8.506 3.854 -1.881 3
9.192 4.146 -1.868 4
10.004 4.495 -1.857 3
10.955 4.907 -1.843 4
7.39 3.386 -1.898 2
7.919 3.608 -1.887 3
8.547 3.875 -1.882 3
9.221 4.162 -1.865 4
0 0 0 50
10.983 4.923 -1.838 3
7.41 3.396 -1.895 2
7.957 3.626 -1.888 3
8.592 3.896 -1.883 3
9.265 4.183 -1.865 4
10.099 4.542 -1.855 3
11.049 4.955 -1.838 3
7.451 3.413 -1.898 2
7.982 3.637 -1.886 3
8.625 3.91 -1.882 3
9.312 4.203 -1.865 4
10.142 4.561 -1.853 3
11.112 4.981 -1.837 3
7.469 3.417 -1.894 2
8.015 3.647 -1.885 3
8.661 3.922 -1.879 4
9.347 4.214 -1.862 4
0 0 0 50
11.185 5.009 -1.838 4
7.511 3.43 -1.895 2
8.048 3.655 -1.883 3
8.699 3.932 -1.878 4
9.401 4.231 -1.862 4
10.278 4.609 -1.855 3
11.255 5.031 -1.836 4
7.549 3.439 -1.895 2
8.098 3.669 -1.885 3
8.745 3.943 -1.878 3
0 0 0 50
10.335 4.624 -1.854 3
11.318 5.047 -1.834 4
7.582 3.443 -1.894 3
8.144 3.679 -1.886 3
8.788 3.95 -1.876 3
9.524 4.263 -1.864 4
10.392 4.635 -1.852 4
11.374 5.057 -1.83 4
7.626 3.45 -1.895 2
8.184 3.683 -1.885 3
0 0 0 50
9.58 4.273 -1.864 4
10.448 4.643 -1.849 3
11.456 5.075 -1.83 4
7.666 3.453 -1.895 2
8.224 3.684 -1.883 3
8.883 3.961 -1.874 3
9.632 4.277 -1.862 4
0 0 0 50
11.529 5.086 -1.827 4
7.709 3.455 -1.895 3
8.258 3.681 -1.879 3
8.945 3.969 -1.875 4
9.702 4.287 -1.863 4
10.582 4.659 -1.846 3
11.654 5.116 -1.833 4
7.744 3.45 -1.893 3
8.313 3.685 -1.881 3
0 0 0 50
9.743 4.281 -1.858 4
10.65 4.664 -1.845 3
11.719 5.116 -1.828 4
7.788 3.448 -1.893 2
8.371 3.687 -1.883 3
9.049 3.968 -1.873 4
9.823 4.29 -1.861 4
10.726 4.668 -1.844 4
11.808 5.123 -1.828 4
0 0 0 50
8.419 3.683 -1.882 3
9.117 3.97 -1.875 3
9.875 4.283 -1.857 4
10.817 4.675 -1.846 3
11.895 5.126 -1.826 4
7.874 3.436 -1.891 3
8.472 3.678 -1.882 3
0 0 0 50
9.95 4.283 -1.858 4
10.868 4.662 -1.841 3
11.978 5.124 -1.824 4
7.92 3.428 -1.891 3
8.514 3.666 -1.879 3
9.222 3.953 -1.872 4
9.996 4.267 -1.853 4
10.961 4.664 -1.843 3
0 0 0 50
7.962 3.416 -1.89 3
8.561 3.654 -1.878 3
9.266 3.938 -1.868 4
10.066 4.26 -1.854 4
11.045 4.659 -1.843 3
12.155 5.112 -1.82 4
8.017 3.407 -1.892 2
0 0 0 50
9.336 3.93 -1.87 3
10.142 4.253 -1.854 5
11.111 4.643 -1.84 4
12.266 5.111 -1.822 4
8.052 3.387 -1.888 3
8.669 3.629 -1.878 4
9.388 3.912 -1.868 3
10.203 4.235 -1.852 5
0 0 0 50
12.34 5.091 -1.818 4
8.1 3.371 -1.888 3
8.725 3.613 -1.878 4
9.455 3.899 -1.869 4
10.265 4.216 -1.85 5
11.262 4.61 -1.836 4
12.447 5.081 -1.818 4
8.147 3.353 -1.888 3
8.774 3.593 -1.877 4
0 0 0 50
10.347 4.202 -1.852 5
11.349 4.594 -1.837 4
12.542 5.063 -1.817 4
8.201 3.335 -1.889 3
8.83 3.573 -1.877 3
9.564 3.853 -1.866 3
10.405 4.176 -1.85 4
11.43 4.572 -1.835 4
12.641 5.043 -1.817 4
8.239 3.309 -1.887 3
8.874 3.546 -1.875 4
0 0 0 50
10.473 4.151 -1.849 4
11.516 4.549 -1.836 4
12.744 5.02 -1.817 4
8.285 3.284 -1.886 3
8.925 3.52 -1.874 3
9.678 3.8 -1.864 4
10.559 4.13 -1.851 5
11.585 4.516 -1.834 5
12.818 4.983 -1.813 4
8.34 3.26 -1.888 3
8.982 3.494 -1.875 3
0 0 0 50
10.622 4.098 -1.85 4
11.646 4.479 -1.83 4
12.9 4.947 -1.811 4
8.374 3.227 -1.885 3
9.024 3.46 -1.873 3
9.805 3.743 -1.865 4
10.671 4.058 -1.846 5
11.735 4.448 -1.831 6
0 0 0 50
8.418 3.195 -1.884 3
9.083 3.431 -1.874 3
9.864 3.709 -1.865 4
10.761 4.031 -1.85 5
11.818 4.413 -1.832 5
13.092 4.874 -1.81 5
8.472 3.166 -1.887 3
9.133 3.396 -1.874 4
9.908 3.667 -1.862 4
0 0 0 50
11.875 4.364 -1.828 6
13.181 4.831 -1.809 5
8.508 3.127 -1.884 3
9.181 3.358 -1.874 3
9.964 3.628 -1.862 4
10.86 3.94 -1.844 4
11.966 4.326 -1.83 5
13.254 4.779 -1.806 5
8.551 3.09 -1.884 3
0 0 0 50
10.035 3.593 -1.864 4
10.933 3.899 -1.845 4
12.003 4.266 -1.824 6
13.359 4.734 -1.808 5
8.6 3.053 -1.886 3
9.269 3.274 -1.872 4
10.079 3.545 -1.862 4
10.995 3.852 -1.845 5
0 0 0 50
13.422 4.673 -1.804 6
8.629 3.008 -1.883 3
9.314 3.23 -1.871 3
10.135 3.499 -1.863 4
11.061 3.804 -1.846 5
12.189 4.178 -1.83 6
13.507 4.616 -1.804 6
8.686 2.97 -1.886 3
9.349 3.181 -1.869 3
10.203 3.456 -1.865 4
0 0 0 50
12.233 4.113 -1.826 5
13.586 4.553 -1.803 6
8.712 2.92 -1.883 3
9.404 3.136 -1.871 3
10.218 3.392 -1.859 4
11.168 3.693 -1.844 5
12.316 4.058 -1.828 6
13.649 4.484 -1.8 6
8.752 2.874 -1.884 3
0 0 0 50
10.262 3.338 -1.858 3
11.235 3.64 -1.846 4
12.362 3.991 -1.825 5
13.731 4.419 -1.801 7
8.775 2.821 -1.881 3
9.483 3.034 -1.87 4
10.317 3.286 -1.859 4
11.267 3.573 -1.842 4
12.443 3.932 -1.828 6
0 0 0 50
8.819 2.774 -1.882 3
9.52 2.98 -1.869 3
10.372 3.231 -1.861 4
11.335 3.516 -1.845 4
12.476 3.856 -1.824 6
13.882 4.276 -1.801 6
8.844 2.719 -1.881 3
9.554 2.922 -1.868 3
0 0 0 50
11.368 3.446 -1.842 5
12.536 3.786 -1.824 6
13.951 4.199 -1.802 7
8.88 2.666 -1.881 3
9.594 2.866 -1.869 4
10.458 3.108 -1.861 4
11.41 3.378 -1.841 5
12.592 3.713 -1.824 5
14.021 4.121 -1.802 7
8.916 2.613 -1.882 3
0 0 0 50
10.474 3.039 -1.857 4
11.449 3.307 -1.84 5
12.648 3.638 -1.824 6
14.068 4.033 -1.8 7
8.924 2.55 -1.877 3
9.658 2.744 -1.868 3
10.512 2.972 -1.857 4
11.503 3.238 -1.841 5
0 0 0 50
14.117 3.943 -1.799 7
8.968 2.496 -1.88 4
9.689 2.682 -1.868 3
10.557 2.907 -1.859 5
11.537 3.163 -1.84 5
12.746 3.48 -1.824 6
14.206 3.864 -1.803 7
0 0 0 50
9.716 2.616 -1.867 4
10.583 2.835 -1.857 5
11.574 3.086 -1.84 5
12.773 3.391 -1.822 6
14.261 3.773 -1.803 6
9.014 2.373 -1.879 4
9.764 2.556 -1.871 4
10.617 2.765 -1.858 5
0 0 0 50
12.819 3.308 -1.822 5
14.292 3.674 -1.801 6
9.039 2.311 -1.879 4
9.775 2.484 -1.868 5
10.657 2.695 -1.859 5
11.641 2.928 -1.839 5
12.838 3.216 -1.82 6
14.339 3.577 -1.801 6
0 0 0 50
9.806 2.418 -1.869 5
10.686 2.619 -1.859 6
11.681 2.849 -1.841 5
12.886 3.127 -1.821 6
14.365 3.472 -1.799 5
9.085 2.182 -1.879 4
0 0 0 50
10.706 2.542 -1.858 7
11.708 2.765 -1.84 5
12.923 3.038 -1.821 6
14.413 3.373 -1.8 6
9.112 2.118 -1.88 5
9.837 2.272 -1.865 5
0 0 0 50
11.743 2.683 -1.841 6
12.961 2.946 -1.822 6
14.463 3.273 -1.802 6
9.133 2.051 -1.88 5
9.877 2.204 -1.869 5
10.755 2.386 -1.858 7
11.743 2.592 -1.837 6
0 0 0 50
14.483 3.165 -1.8 7
9.149 1.984 -1.88 5
9.89 2.13 -1.867 5
10.732 2.297 -1.85 8
11.776 2.506 -1.838 7
13.041 2.761 -1.825 6
14.533 3.062 -1.802 7
9.17 1.916 -1.88 5
9.911 2.057 -1.868 5
0 0 0 50
11.803 2.419 -1.839 7
13.04 2.659 -1.822 7
14.566 2.955 -1.803 7
9.186 1.847 -1.88 6
9.922 1.981 -1.867 5
0 0 0 50
11.83 2.332 -1.84 7
13.085 2.564 -1.825 7
14.587 2.843 -1.802 7
9.207 1.777 -1.882 6
9.949 1.907 -1.869 5
10.831 2.061 -1.857 6
11.847 2.241 -1.839 7
13.105 2.464 -1.825 8
0 0 0 50
9.214 1.706 -1.88 7
9.964 1.831 -1.869 5
10.864 1.981 -1.86 6
11.857 2.148 -1.839 7
13.119 2.361 -1.824 9
14.632 2.618 -1.802 8
9.237 1.635 -1.882 4
9.981 1.753 -1.869 5
0 0 0 50
11.878 2.057 -1.839 7
13.139 2.26 -1.824 9
14.648 2.503 -1.801 8
9.235 1.561 -1.879 4
9.995 1.676 -1.87 4
10.877 1.81 -1.858 6
11.895 1.964 -1.839 7
13.186 2.162 -1.829 9
0 0 0 50
9.249 1.489 -1.88 4
9.995 1.595 -1.867 3
10.886 1.723 -1.857 6
11.904 1.87 -1.839 7
13.205 2.059 -1.829 9
0 0 0 50
9.266 1.417 -1.881 4
10.014 1.518 -1.869 4
10.914 1.639 -1.86 6
11.993 1.786 -1.851 7
13.23 1.955 -1.831 6
14.72 2.159 -1.805 10
9.282 1.343 -1.883 4
10.034 1.439 -1.871 5
10.96 1.557 -1.866 6
0 0 0 50
13.219 1.846 -1.828 5
14.745 2.042 -1.807 8
9.311 1.271 -1.887 4
10.051 1.359 -1.872 5
11 1.473 -1.871 6
12.022 1.595 -1.852 7
13.264 1.743 -1.833 7
14.757 1.923 -1.807 9
0 0 0 50
10.089 1.281 -1.878 5
11.029 1.386 -1.875 6
12.072 1.502 -1.858 7
13.271 1.635 -1.832 8
14.754 1.801 -1.805 8
9.374 1.125 -1.896 7
10.108 1.2 -1.88 5
11.045 1.297 -1.876 6
0 0 0 50
13.312 1.529 -1.837 8
14.808 1.685 -1.811 10
9.367 1.047 -1.894 8
10.121 1.118 -1.881 5
11.062 1.207 -1.878 6
12.072 1.302 -1.856 7
13.357 1.425 -1.842 9
14.855 1.568 -1.815 11
9.368 0.97 -1.892 5
0 0 0 50
11.067 1.117 -1.877 6
12.106 1.207 -1.86 7
13.347 1.314 -1.839 9
14.878 1.447 -1.817 11
9.38 0.893 -1.894 8
10.138 0.952 -1.882 5
11.077 1.026 -1.878 6
12.117 1.107 -1.861 7
0 0 0 50
14.901 1.325 -1.819 9
9.383 0.816 -1.893 8
10.123 0.866 -1.878 7
11.078 0.934 -1.877 6
12.156 1.008 -1.865 8
13.413 1.096 -1.847 9
14.96 1.205 -1.825 11
9.385 0.737 -1.892 8
10.156 0.784 -1.883 5
0 0 0 50
12.178 0.909 -1.868 8
13.442 0.985 -1.85 9
14.959 1.079 -1.824 11
9.392 0.658 -1.893 7
10.183 0.7 -1.887 5
11.111 0.749 -1.88 6
12.188 0.806 -1.868 7
13.444 0.873 -1.849 8
14.98 0.954 -1.826 10
0 0 0 50
10.203 0.616 -1.89 4
11.109 0.656 -1.879 6
12.198 0.704 -1.869 7
13.481 0.762 -1.853 8
15.004 0.828 -1.828 10
9.405 0.501 -1.894 7
10.185 0.529 -1.886 4
11.13 0.563 -1.882 6
0 0 0 50
13.479 0.647 -1.852 8
15.021 0.703 -1.83 10
9.407 0.422 -1.893 7
10.206 0.444 -1.889 7
11.14 0.47 -1.883 6
12.231 0.5 -1.873 7
13.51 0.534 -1.856 8
15.039 0.575 -1.831 10
9.426 0.343 -1.896 8
0 0 0 50
11.153 0.375 -1.884 6
12.217 0.395 -1.87 7
13.525 0.42 -1.857 8
15.044 0.447 -1.83 10
9.443 0.263 -1.899 8
10.238 0.271 -1.893 6
11.152 0.28 -1.883 6
12.228 0.292 -1.87 7
0 0 0 50
15.068 0.32 -1.832 10
9.456 0.183 -1.901 7
10.236 0.184 -1.892 7
11.169 0.185 -1.885 6
12.24 0.187 -1.871 7
13.532 0.189 -1.856 8
15.075 0.19 -1.832 10
9.463 0.102 -1.901 8
10.252 0.096 -1.894 7
11.177 0.09 -1.886 6
0 0 0 50
13.549 0.074 -1.857 8
15.079 0.062 -1.832 8
9.475 0.022 -1.903 8
10.253 0.01 -1.893 6
11.186 -0.003 -1.886 6
12.25 -0.02 -1.871 7
13.547 -0.041 -1.856 8
15.085 -0.066 -1.831 7
9.491 -0.058 -1.905 9
0 0 0 50
11.211 -0.099 -1.889 6
12.263 -0.125 -1.872 7
13.583 -0.157 -1.859 8
15.075 -0.195 -1.829 6
9.489 -0.139 -1.904 8
10.27 -0.164 -1.894 7
11.221 -0.195 -1.89 6
12.263 -0.23 -1.871 7
13.549 -0.272 -1.854 7
15.166 -0.326 -1.838 7
0 0 0 50
10.282 -0.253 -1.896 7
11.203 -0.291 -1.886 6
12.268 -0.336 -1.87 7
13.595 -0.391 -1.858 5
15.16 -0.458 -1.836 7
9.527 -0.304 -1.91 10
10.292 -0.342 -1.897 4
11.217 -0.388 -1.887 6
12.264 -0.441 -1.868 5
13.615 -0.509 -1.86 7
0 0 0 50
9.524 -0.385 -1.909 7
10.283 -0.43 -1.894 4
11.202 -0.484 -1.884 5
12.318 -0.55 -1.875 5
13.635 -0.628 -1.861 7
15.205 -0.722 -1.837 5
9.532 -0.467 -1.909 6
10.287 -0.519 -1.894 4
11.236 -0.582 -1.888 4
0 0 0 50
13.651 -0.745 -1.861 7
15.219 -0.853 -1.837 6
9.521 -0.549 -1.906 5
10.298 -0.608 -1.895 3
11.262 -0.68 -1.891 6
12.336 -0.762 -1.875 5
13.665 -0.865 -1.861 6
15.254 -0.987 -1.839 6
0 0 0 50
10.334 -0.699 -1.9 4
11.279 -0.779 -1.893 6
12.363 -0.872 -1.878 6
13.682 -0.985 -1.862 8
15.247 -1.121 -1.836 8
9.525 -0.715 -1.905 3
10.33 -0.79 -1.898 4
11.293 -0.879 -1.893 6
12.393 -0.983 -1.88 7
0 0 0 50
15.266 -1.257 -1.836 6
9.555 -0.8 -1.91 4
10.341 -0.881 -1.899 4
11.299 -0.978 -1.893 6
12.395 -1.09 -1.879 7
13.721 -1.228 -1.863 6
15.289 -1.391 -1.836 8
0 0 0 50
10.364 -0.972 -1.902 5
11.322 -1.078 -1.895 5
12.414 -1.199 -1.88 7
13.745 -1.349 -1.864 7
15.377 -1.534 -1.844 11
9.574 -0.968 -1.911 4
10.378 -1.064 -1.903 5
11.337 -1.178 -1.896 5
12.415 -1.309 -1.878 7
0 0 0 50
15.286 -1.66 -1.83 74
9.586 -1.054 -1.912 4
10.391 -1.157 -1.904 5
11.341 -1.279 -1.895 5
12.434 -1.421 -1.879 7
13.891 -1.61 -1.878 32
0 0 0 50
9.593 -1.14 -1.913 4
10.398 -1.25 -1.904 5
11.358 -1.382 -1.896 6
12.449 -1.533 -1.879 8
13.723 -1.711 -1.853 64
14.85 -1.876 -1.771 16
9.597 -1.225 -1.912 4
10.407 -1.342 -1.904 5
0 0 0 50
12.557 -1.657 -1.893 8
13.878 -1.853 -1.871 24
14.13 -1.91 -1.682 33
9.617 -1.312 -1.915 4
10.426 -1.437 -1.905 4
11.387 -1.586 -1.897 6
12.435 -1.751 -1.872 58
13.574 -1.933 -1.827 9
13.805 -1.99 -1.64 23
9.627 -1.399 -1.916 4
0 0 0 50
11.403 -1.691 -1.897 6
12.404 -1.858 -1.865 27
13.056 -1.977 -1.754 12
13.569 -2.077 -1.609 34
9.633 -1.486 -1.915 4
10.453 -1.627 -1.907 5
11.416 -1.793 -1.897 41
0 0 0 50
12.583 -2.016 -1.688 17
13.549 -2.195 -1.603 43
9.637 -1.572 -1.915 4
10.469 -1.722 -1.908 5
11.355 -1.885 -1.885 38
12.179 -2.041 -1.825 7
0 0 0 50
13.551 -2.317 -1.6 38
9.649 -1.661 -1.916 4
10.531 -1.828 -1.918 14
11.445 -2.003 -1.898 7
11.748 -2.074 -1.758 14
12.255 -2.184 -1.638 32
13.521 -2.434 -1.592 34
9.645 -1.746 -1.913 4
0 0 0 50
11.317 -2.083 -1.874 16
11.363 -2.11 -1.698 15
12.218 -2.289 -1.63 39
13.478 -2.549 -1.584 31
9.661 -1.837 -1.915 5
10.411 -1.995 -1.892 18
11.047 -2.133 -1.827 12
11.184 -2.177 -1.669 18
12.208 -2.398 -1.625 31
13.532 -2.682 -1.586 32
0 0 0 50
10.477 -2.102 -1.902 9
10.687 -2.161 -1.765 14
11.053 -2.253 -1.646 30
12.188 -2.505 -1.619 30
13.577 -2.816 -1.587 33
9.63 -2.006 -1.906 39
10.383 -2.178 -1.883 10
10.361 -2.19 -1.709 16
0 0 0 50
12.134 -2.605 -1.609 32
13.617 -2.948 -1.588 31
9.645 -2.097 -1.907 11
10.115 -2.213 -1.833 7
10.211 -2.25 -1.682 16
10.968 -2.436 -1.628 39
12.192 -2.729 -1.613 29
13.7 -3.092 -1.593 34
9.649 -2.186 -1.907 26
0 0 0 50
10.105 -2.319 -1.663 30
10.891 -2.518 -1.614 32
12.19 -2.84 -1.609 30
13.753 -3.23 -1.595 24
9.541 -2.248 -1.884 15
9.541 -2.262 -1.725 14
10.045 -2.398 -1.651 32
10.87 -2.613 -1.608 33
12.249 -2.967 -1.614 30
0 0 0 50
9.318 -2.281 -1.838 13
9.343 -2.301 -1.688 12
10.037 -2.488 -1.647 33
10.818 -2.699 -1.598 34
12.343 -3.103 -1.623 33
15.886 -4.024 -1.832 3
9.075 -2.305 -1.789 15
9.315 -2.38 -1.681 20
0 0 0 50
10.821 -2.8 -1.596 39
12.416 -3.236 -1.629 30
15.922 -4.18 -1.831 3
8.823 -2.322 -1.738 18
9.247 -2.447 -1.667 33
9.982 -2.658 -1.634 35
10.928 -2.929 -1.609 33
12.371 -3.338 -1.619 28
15.959 -4.338 -1.83 3
0 0 0 50
9.225 -2.526 -1.661 33
9.975 -2.748 -1.631 38
10.954 -3.036 -1.61 37
12.224 -3.411 -1.596 7
15.998 -4.497 -1.83 4
8.614 -2.426 -1.695 20
9.198 -2.604 -1.655 32
9.921 -2.825 -1.62 43
0 0 0 50
12.048 -3.475 -1.57 0
16.052 -4.662 -1.83 4
8.53 -2.482 -1.677 30
9.162 -2.679 -1.647 31
9.96 -2.928 -1.624 36
11.137 -3.295 -1.631 30
14.291 -4.254 -1.859 3
16.143 -4.838 -1.836 3
0 0 0 50
9.142 -2.758 -1.642 28
9.984 -3.028 -1.626 27
11.232 -3.426 -1.643 26
14.326 -4.399 -1.859 3
16.152 -4.992 -1.832 4
8.512 -2.634 -1.672 30
9.143 -2.844 -1.641 30
10.015 -3.131 -1.629 28
0 0 0 50
14.373 -4.548 -1.861 3
16.24 -5.172 -1.837 4
8.497 -2.71 -1.668 30
9.137 -2.926 -1.639 28
10.021 -3.226 -1.629 26
10.861 -3.516 -1.584 0
14.412 -4.694 -1.863 3
16.263 -5.332 -1.835 4
0 0 0 50
9.103 -3.001 -1.632 26
10.041 -3.327 -1.631 33
12.918 -4.304 -1.882 2
14.434 -4.837 -1.863 3
16.343 -5.512 -1.839 3
8.473 -2.86 -1.663 29
9.123 -3.094 -1.635 25
10.128 -3.452 -1.643 36
0 0 0 50
14.424 -4.971 -1.858 3
16.351 -5.669 -1.835 3
8.467 -2.938 -1.661 30
9.11 -3.175 -1.632 24
10.123 -3.545 -1.641 7
12.941 -4.555 -1.88 2
14.499 -5.133 -1.864 3
0 0 0 50
8.434 -3.006 -1.655 29
9.145 -3.274 -1.637 21
10.029 -3.606 -1.625 3
12.974 -4.69 -1.883 2
14.555 -5.291 -1.868 3
16.494 -6.031 -1.842 3
8.414 -3.078 -1.65 27
0 0 0 50
11.77 -4.343 -1.905 2
12.999 -4.82 -1.884 2
14.553 -5.425 -1.865 3
16.532 -6.201 -1.842 3
8.412 -3.157 -1.65 27
9.316 -3.51 -1.667 20
11.781 -4.458 -1.906 2
0 0 0 50
14.61 -5.587 -1.869 3
16.627 -6.395 -1.849 7
8.408 -3.235 -1.649 26
9.33 -3.604 -1.669 18
11.801 -4.578 -1.909 2
13.04 -5.083 -1.887 2
14.617 -5.728 -1.868 3
16.556 -6.526 -1.838 12
0 0 0 50
9.238 -3.657 -1.653 5
11.791 -4.686 -1.907 2
13.07 -5.22 -1.89 2
14.665 -5.886 -1.872 2
16.435 -6.634 -1.821 5
8.431 -3.404 -1.655 23
10.708 -4.339 -1.916 2
11.788 -4.797 -1.906 2
0 0 0 50
14.682 -6.034 -1.872 2
16.655 -6.882 -1.842 3
8.458 -3.496 -1.661 23
10.704 -4.44 -1.916 2
11.787 -4.909 -1.905 2
13.091 -5.477 -1.891 2
14.684 -6.175 -1.871 2
16.727 -7.072 -1.848 4
0 0 0 50
10.731 -4.553 -1.921 2
11.766 -5.012 -1.902 2
13.071 -5.592 -1.888 3
14.806 -6.367 -1.885 3
16.73 -7.233 -1.845 4
8.506 -3.678 -1.673 19
10.701 -4.643 -1.917 2
11.765 -5.125 -1.903 2
0 0 0 50
14.847 -6.526 -1.89 7
16.826 -7.435 -1.854 4
8.497 -3.755 -1.673 5
10.723 -4.754 -1.922 2
11.762 -5.234 -1.903 2
13.101 -5.855 -1.892 2
14.761 -6.628 -1.878 12
0 0 0 50
9.746 -4.4 -1.92 2
10.689 -4.841 -1.918 2
11.769 -5.35 -1.905 2
13.079 -5.97 -1.89 2
14.651 -6.719 -1.864 9
16.769 -7.729 -1.846 7
9.736 -4.488 -1.921 2
0 0 0 50
11.778 -5.466 -1.908 2
13.13 -6.118 -1.898 2
14.57 -6.821 -1.854 4
16.807 -7.908 -1.849 4
9.746 -4.585 -1.926 2
0 0 0 50
11.775 -5.576 -1.91 2
13.047 -6.203 -1.888 2
14.696 -7.018 -1.871 3
16.847 -8.087 -1.854 3
9.743 -4.677 -1.929 2
10.678 -5.14 -1.923 2
11.756 -5.678 -1.909 2
13.104 -6.354 -1.897 2
0 0 0 50
16.783 -8.213 -1.847 4
9.717 -4.757 -1.927 2
10.662 -5.233 -1.923 2
11.737 -5.779 -1.909 2
13.102 -6.476 -1.9 2
14.789 -7.342 -1.886 3
16.904 -8.431 -1.861 3
9.7 -4.84 -1.927 2
0 0 0 50
11.731 -5.887 -1.911 2
13.135 -6.616 -1.907 4
14.757 -7.464 -1.884 3
16.898 -8.589 -1.862 4
9.671 -4.917 -1.926 2
10.639 -5.423 -1.927 1
11.708 -5.986 -1.911 2
0 0 0 50
14.717 -7.583 -1.882 3
16.928 -8.762 -1.868 3
9.654 -4.999 -1.927 2
10.641 -5.524 -1.931 1
11.706 -6.094 -1.914 2
0 0 0 50
14.723 -7.723 -1.886 3
16.899 -8.904 -1.868 4
9.641 -5.083 -1.929 2
10.651 -5.628 -1.938 1
11.645 -6.171 -1.909 2
12.921 -6.871 -1.887 6
14.7 -7.846 -1.887 3
16.841 -9.029 -1.865 4
9.603 -5.152 -1.927 2
0 0 0 50
11.656 -6.285 -1.916 2
12.888 -6.972 -1.887 3
14.67 -7.966 -1.887 3
16.826 -9.176 -1.867 4
9.566 -5.222 -1.925 2
10.526 -5.757 -1.926 1
11.608 -6.366 -1.914 2
0 0 0 50
14.634 -8.08 -1.888 3
16.852 -9.344 -1.875 4
9.563 -5.308 -1.93 2
10.523 -5.851 -1.931 1
11.569 -6.45 -1.913 2
12.874 -7.198 -1.897 2
14.586 -8.186 -1.888 3
16.765 -9.447 -1.871 4
0 0 0 50
10.51 -5.939 -1.935 2
11.537 -6.535 -1.914 1
12.89 -7.323 -1.905 2
14.5 -8.266 -1.883 3
16.793 -9.611 -1.881 5
9.499 -5.443 -1.931 2
10.441 -5.993 -1.929 2
0 0 0 50
12.853 -7.415 -1.906 2
14.524 -8.408 -1.892 3
16.78 -9.752 -1.885 6
9.472 -5.513 -1.932 2
10.395 -6.06 -1.928 2
11.478 -6.706 -1.918 2
12.825 -7.513 -1.91 2
14.508 -8.527 -1.897 3
16.736 -9.873 -1.889 9
0 0 0 50
10.322 -6.109 -1.922 2
11.439 -6.783 -1.919 2
12.725 -7.565 -1.902 3
14.455 -8.621 -1.898 3
16.56 -9.912 -1.876 12
9.422 -5.651 -1.938 3
10.262 -6.162 -1.919 2
11.398 -6.856 -1.921 2
0 0 0 50
14.378 -8.695 -1.897 3
16.463 -9.991 -1.875 14
9.38 -5.705 -1.937 2
10.203 -6.214 -1.916 2
11.356 -6.928 -1.922 2
12.675 -7.749 -1.912 2
14.335 -8.789 -1.901 3
16.381 -10.077 -1.875 15
9.34 -5.761 -1.938 2
0 0 0 50
11.295 -6.983 -1.92 2
12.573 -7.791 -1.906 2
14.262 -8.861 -1.9 3
16.192 -10.093 -1.863 12
9.299 -5.813 -1.938 2
10.141 -6.344 -1.922 2
11.272 -7.062 -1.926 2
12.561 -7.885 -1.914 3
0 0 0 50
16.106 -10.168 -1.864 13
9.252 -5.859 -1.937 2
10.083 -6.39 -1.921 2
11.16 -7.081 -1.917 2
12.465 -7.922 -1.909 3
14.138 -9.007 -1.905 3
15.956 -10.195 -1.858 11
9.226 -5.916 -1.941 2
0 0 0 50
11.131 -7.148 -1.922 2
12.366 -7.953 -1.904 3
14.062 -9.066 -1.905 3
15.828 -10.232 -1.854 10
9.188 -5.963 -1.943 2
9.973 -6.474 -1.919 2
11.096 -7.21 -1.926 2
0 0 0 50
14.03 -9.148 -1.913 3
15.674 -10.247 -1.848 14
9.112 -5.982 -1.937 2
9.958 -6.539 -1.927 2
11.016 -7.238 -1.923 2
12.25 -8.06 -1.908 2
13.913 -9.171 -1.909 3
15.658 -10.347 -1.859 15
9.035 -6.063 -1.942 2
9.833 -6.596 -1.924 2
10.895 -7.311 -1.924 2
12.129 -8.146 -1.912 3
0 0 0 50
15.396 -10.38 -1.853 9
8.989 -6.094 -1.942 2
9.792 -6.635 -1.926 1
10.83 -7.34 -1.924 2
12.093 -8.202 -1.919 3
13.596 -9.234 -1.902 3
15.294 -10.407 -1.855 9
8.966 -6.137 -1.948 2
0 0 0 50
10.774 -7.37 -1.925 2
12.019 -8.226 -1.919 2
13.56 -9.292 -1.91 3
15.169 -10.413 -1.854 10
8.913 -6.158 -1.948 2
9.699 -6.695 -1.93 1
0 0 0 50
11.949 -8.249 -1.92 2
13.516 -9.34 -1.917 3
15.067 -10.428 -1.855 8
8.865 -6.178 -1.948 2
9.663 -6.727 -1.934 1
10.684 -7.434 -1.932 2
11.829 -8.233 -1.914 2
13.357 -9.303 -1.908 3
0 0 0 50
8.805 -6.187 -1.945 2
9.612 -6.746 -1.935 2
10.574 -7.416 -1.924 2
11.778 -8.26 -1.918 3
13.263 -9.306 -1.908 3
14.874 -10.45 -1.86 7
8.759 -6.203 -1.946 2
9.54 -6.745 -1.933 2
0 0 0 50
11.694 -8.259 -1.916 3
13.218 -9.339 -1.914 2
14.787 -10.457 -1.864 8
8.722 -6.221 -1.949 2
9.5 -6.764 -1.935 1
10.458 -7.438 -1.927 2
11.633 -8.269 -1.919 2
0 0 0 50
14.708 -10.466 -1.868 7
8.68 -6.232 -1.95 2
9.449 -6.771 -1.936 2
10.422 -7.458 -1.932 2
11.542 -8.254 -1.916 3
13.011 -9.303 -1.911 3
14.631 -10.468 -1.871 10
8.634 -6.236 -1.95 2
0 0 0 50
10.354 -7.451 -1.931 2
11.494 -8.264 -1.921 2
12.962 -9.317 -1.917 3
14.539 -10.454 -1.875 7
8.586 -6.236 -1.95 2
9.37 -6.789 -1.942 2
10.32 -7.464 -1.936 2
0 0 0 50
12.859 -9.286 -1.915 3
14.447 -10.433 -1.877 8
8.554 -6.244 -1.953 2
9.305 -6.774 -1.939 2
10.247 -7.445 -1.933 2
11.335 -8.225 -1.917 3
12.798 -9.279 -1.918 3
0 0 0 50
8.506 -6.236 -1.952 2
9.282 -6.786 -1.944 1
10.183 -7.427 -1.931 2
11.302 -8.231 -1.923 3
12.692 -9.233 -1.915 3
14.306 -10.404 -1.885 14
8.465 -6.23 -1.952 2
9.228 -6.77 -1.943 1
0 0 0 50
11.256 -8.223 -1.927 2
12.633 -9.218 -1.918 3
14.248 -10.39 -1.891 11
8.447 -6.237 -1.957 2
9.174 -6.751 -1.941 2
10.087 -7.403 -1.934 2
11.169 -8.18 -1.923 2
12.573 -9.195 -1.921 3
14.125 -10.322 -1.887 10
8.391 -6.212 -1.953 2
0 0 0 50
10.036 -7.38 -1.935 2
11.085 -8.133 -1.919 2
12.474 -9.137 -1.917 3
14.081 -10.303 -1.894 10
8.369 -6.207 -1.956 2
0 0 0 50
9.975 -7.347 -1.932 2
11.075 -8.137 -1.927 3
12.451 -9.13 -1.924 3
14.031 -10.276 -1.899 11
8.326 -6.185 -1.955 2
9.046 -6.692 -1.941 1
9.97 -7.35 -1.939 2
11.043 -8.119 -1.931 3
0 0 0 50
13.969 -10.234 -1.902 10
8.299 -6.17 -1.956 2
9.012 -6.671 -1.941 1
9.919 -7.316 -1.938 2
10.972 -8.069 -1.927 3
12.306 -9.029 -1.922 3
13.946 -10.215 -1.91 10
8.263 -6.145 -1.954 2
0 0 0 50
9.867 -7.277 -1.936 2
10.922 -8.029 -1.927 2
12.261 -8.989 -1.924 3
13.95 -10.208 -1.92 8
8.234 -6.121 -1.954 2
8.985 -6.648 -1.949 1
9.855 -7.262 -1.94 2
10.86 -7.975 -1.923 2
0 0 0 50
13.901 -10.158 -1.922 7
8.209 -6.097 -1.954 2
8.947 -6.612 -1.948 2
9.796 -7.209 -1.936 2
10.842 -7.949 -1.927 2
12.121 -8.861 -1.917 3
13.856 -10.105 -1.925 6
8.189 -6.073 -1.954 2
8.915 -6.577 -1.946 1
0 0 0 50
10.799 -7.9 -1.926 2
12.091 -8.817 -1.92 3
13.785 -10.027 -1.922 5
8.176 -6.051 -1.956 2
8.879 -6.535 -1.943 2
9.75 -7.142 -1.937 2
10.78 -7.865 -1.928 2
12.055 -8.765 -1.92 3
13.682 -9.919 -1.916 5
8.166 -6.027 -1.957 2
8.874 -6.513 -1.946 2
9.76 -7.128 -1.944 2
0 0 0 50
12.04 -8.722 -1.923 3
13.615 -9.835 -1.911 5
8.139 -5.987 -1.954 2
8.876 -6.492 -1.95 2
9.694 -7.053 -1.935 2
10.719 -7.763 -1.926 2
12.001 -8.659 -1.922 3
0 0 0 50
8.144 -5.968 -1.959 3
8.841 -6.439 -1.945 2
9.7 -7.027 -1.939 2
10.695 -7.711 -1.926 2
11.967 -8.594 -1.92 3
13.492 -9.655 -1.905 4
8.149 -5.945 -1.962 2
8.832 -6.402 -1.945 2
9.702 -6.995 -1.942 2
0 0 0 50
11.953 -8.539 -1.92 2
13.498 -9.608 -1.909 4
8.129 -5.901 -1.958 2
8.826 -6.366 -1.945 2
9.688 -6.947 -1.94 2
10.664 -7.608 -1.924 2
11.928 -8.472 -1.919 3
13.505 -9.556 -1.912 3
8.128 -5.867 -1.959 3
0 0 0 50
9.675 -6.897 -1.939 2
10.664 -7.562 -1.925 2
11.88 -8.385 -1.912 2
13.46 -9.462 -1.908 4
8.146 -5.844 -1.963 2
8.829 -6.291 -1.947 2
9.675 -6.852 -1.939 2
10.67 -7.516 -1.927 2
0 0 0 50
13.48 -9.41 -1.911 4
8.122 -5.788 -1.956 3
8.81 -6.235 -1.942 2
9.662 -6.796 -1.936 2
10.666 -7.459 -1.926 2
11.917 -8.293 -1.919 3
13.488 -9.345 -1.913 3
8.13 -5.752 -1.957 2
8.837 -6.209 -1.946 2
0 0 0 50
10.649 -7.39 -1.921 2
11.928 -8.235 -1.92 3
13.443 -9.24 -1.905 3
8.139 -5.714 -1.957 3
8.841 -6.163 -1.945 2
9.697 -6.714 -1.939 2
10.676 -7.349 -1.924 2
0 0 0 50
13.473 -9.182 -1.908 3
8.146 -5.672 -1.955 2
8.855 -6.12 -1.945 2
9.692 -6.654 -1.936 2
10.68 -7.287 -1.922 2
11.968 -8.122 -1.922 3
13.501 -9.118 -1.909 3
0 0 0 50
8.852 -6.064 -1.941 2
9.702 -6.6 -1.934 2
10.697 -7.232 -1.922 2
11.971 -8.048 -1.919 3
13.501 -9.032 -1.906 3
8.184 -5.596 -1.957 2
8.889 -6.032 -1.945 2
9.717 -6.547 -1.933 2
10.71 -7.171 -1.92 2
0 0 0 50
13.522 -8.956 -1.905 3
8.197 -5.55 -1.956 2
8.888 -5.972 -1.94 3
9.714 -6.48 -1.927 2
10.744 -7.121 -1.921 2
12.037 -7.931 -1.92 3
13.55 -8.881 -1.903 3
8.231 -5.516 -1.958 3
8.939 -5.943 -1.946 3
0 0 0 50
10.776 -7.066 -1.921 2
12.077 -7.872 -1.921 3
13.624 -8.833 -1.908 3
8.229 -5.455 -1.952 2
8.945 -5.883 -1.941 3
9.818 -6.409 -1.936 2
10.819 -7.016 -1.922 2
12.102 -7.8 -1.918 3
13.637 -8.741 -1.903 3
8.267 -5.419 -1.954 2
0 0 0 50
9.803 -6.327 -1.926 2
10.842 -6.951 -1.919 2
12.163 -7.748 -1.92 3
13.689 -8.672 -1.903 3
8.284 -5.367 -1.95 3
9.022 -5.798 -1.944 3
9.85 -6.282 -1.928 2
10.889 -6.897 -1.92 2
12.213 -7.687 -1.92 3
13.776 -8.621 -1.906 4
0 0 0 50
9.059 -5.75 -1.944 3
9.868 -6.216 -1.923 2
10.944 -6.846 -1.922 2
12.196 -7.58 -1.909 3
13.765 -8.506 -1.896 3
8.338 -5.27 -1.947 2
9.085 -5.695 -1.941 3
9.939 -6.182 -1.929 2
10.973 -6.777 -1.918 2
12.309 -7.551 -1.918 3
0 0 0 50
8.395 -5.237 -1.952 2
9.118 -5.64 -1.939 3
9.986 -6.13 -1.929 2
11.052 -6.735 -1.922 2
12.368 -7.488 -1.917 2
13.933 -8.386 -1.899 3
8.418 -5.182 -1.948 2
9.177 -5.601 -1.942 3
10.039 -6.079 -1.929 2
11.079 -6.66 -1.917 2
12.393 -7.401 -1.91 2
0 0 0 50
8.466 -5.14 -1.949 2
9.216 -5.547 -1.94 3
10.093 -6.028 -1.929 2
11.157 -6.614 -1.919 2
12.474 -7.345 -1.911 3
14.063 -8.23 -1.895 3
8.522 -5.101 -1.952 3
9.238 -5.481 -1.934 3
10.124 -5.959 -1.925 2
11.19 -6.539 -1.914 2
12.568 -7.294 -1.914 3
14.155 -8.165 -1.895 3
8.553 -5.045 -1.948 2
9.293 -5.434 -1.935 3
10.2 -5.916 -1.928 2
11.276 -6.493 -1.918 2
12.606 -7.208 -1.908 3
14.288 -8.118 -1.9 3
8.599 -4.995 -1.947 2
0 0 0 50
10.282 -5.873 -1.931 2
11.31 -6.412 -1.911 2
12.708 -7.156 -1.911 3
14.344 -8.025 -1.894 3
8.645 -4.945 -1.946 3
9.375 -5.316 -1.929 3
10.375 -5.835 -1.937 2
11.431 -6.38 -1.919 2
12.764 -7.074 -1.906 3
14.481 -7.974 -1.897 3
8.688 -4.89 -1.944 3
9.442 -5.268 -1.931 3
10.393 -5.751 -1.928 2
11.489 -6.31 -1.916 2
12.81 -6.985 -1.9 4
14.553 -7.886 -1.893 3
8.753 -4.847 -1.947 3
9.483 -5.204 -1.927 3
10.491 -5.711 -1.933 1
11.545 -6.236 -1.912 2
0 0 0 50
14.667 -7.816 -1.893 4
8.787 -4.785 -1.942 3
9.546 -5.152 -1.927 3
10.602 -5.675 -1.94 2
11.619 -6.172 -1.911 2
12.997 -6.855 -1.899 11
14.745 -7.726 -1.888 3
8.852 -4.738 -1.943 3
9.615 -5.101 -1.928 3
10.672 -5.614 -1.94 2
11.69 -6.103 -1.908 2
13.117 -6.798 -1.902 13
14.883 -7.662 -1.89 3
8.901 -4.68 -1.941 3
0 0 0 50
10.757 -5.56 -1.941 2
11.809 -6.056 -1.913 2
13.267 -6.756 -1.908 11
14.966 -7.57 -1.884 4
8.962 -4.629 -1.941 3
9.749 -4.99 -1.928 3
10.844 -5.505 -1.943 2
11.856 -5.972 -1.907 3
13.391 -6.696 -1.911 8
0 0 0 50
9.003 -4.566 -1.937 3
9.798 -4.925 -1.924 3
10.943 -5.455 -1.946 4
11.953 -5.911 -1.907 3
13.52 -6.638 -1.913 7
15.184 -7.405 -1.879 4
7.458 -3.712 -1.593 0
9.868 -4.868 -1.923 4
10.956 -5.359 -1.934 4
0 0 0 50
13.589 -6.548 -1.908 4
15.346 -7.344 -1.881 4
9.131 -4.459 -1.937 3
9.942 -4.812 -1.924 3
10.991 -5.275 -1.925 3
12.112 -5.767 -1.902 3
13.635 -6.446 -1.897 3
15.434 -7.246 -1.876 4
7.92 -3.793 -1.668 1
9.995 -4.744 -1.92 3
11.066 -5.208 -1.923 3
0 0 0 50
13.732 -6.365 -1.895 2
15.542 -7.154 -1.871 4
8.001 -3.756 -1.673 16
10.067 -4.684 -1.92 3
11.136 -5.137 -1.921 3
12.335 -5.645 -1.906 3
13.769 -6.254 -1.884 3
15.702 -7.084 -1.873 4
0 0 0 50
10.149 -4.626 -1.921 3
11.204 -5.063 -1.918 3
12.431 -5.574 -1.905 4
13.889 -6.181 -1.883 2
15.744 -6.958 -1.86 3
8.164 -3.678 -1.683 31
10.231 -4.566 -1.922 3
11.263 -4.985 -1.913 3
12.501 -5.489 -1.9 3
0 0 0 50
15.812 -6.845 -1.851 4
8.227 -3.628 -1.683 34
10.291 -4.497 -1.919 3
11.367 -4.926 -1.915 3
12.585 -5.41 -1.898 3
14.073 -6.006 -1.876 2
15.89 -6.734 -1.842 5
0 0 0 50
10.387 -4.442 -1.922 3
11.455 -4.858 -1.915 3
12.683 -5.336 -1.897 3
14.188 -5.925 -1.874 3
16.02 -6.644 -1.84 9
8.25 -3.483 -1.664 38
10.451 -4.373 -1.92 3
0 0 0 50
12.761 -5.251 -1.893 3
14.306 -5.843 -1.873 3
16.221 -6.579 -1.845 12
8.33 -3.438 -1.668 35
9.097 -3.721 -1.659 3
11.607 -4.707 -1.911 3
12.85 -5.169 -1.89 3
14.452 -5.771 -1.876 3
16.47 -6.53 -1.856 12
0 0 0 50
9.141 -3.654 -1.654 14
11.686 -4.631 -1.909 3
12.934 -5.085 -1.887 3
14.541 -5.672 -1.871 3
16.6 -6.43 -1.853 9
8.374 -3.299 -1.653 39
9.29 -3.626 -1.669 23
11.767 -4.553 -1.908 3
0 0 0 50
14.668 -5.588 -1.872 3
16.724 -6.327 -1.85 3
8.407 -3.233 -1.648 39
9.359 -3.566 -1.669 33
11.841 -4.473 -1.905 3
13.114 -4.915 -1.883 3
14.773 -5.494 -1.869 3
16.865 -6.228 -1.848 3
8.47 -3.177 -1.649 40
0 0 0 50
11.916 -4.392 -1.902 3
13.205 -4.828 -1.881 3
14.89 -5.402 -1.867 4
16.957 -6.109 -1.841 3
8.537 -3.124 -1.651 43
9.42 -3.415 -1.656 36
11.997 -4.311 -1.901 3
13.322 -4.748 -1.883 3
15.007 -5.309 -1.866 3
0 0 0 50
8.579 -3.059 -1.648 40
9.423 -3.33 -1.645 37
12.118 -4.245 -1.906 3
13.37 -4.647 -1.875 3
15.1 -5.207 -1.862 3
17.193 -5.887 -1.833 3
8.652 -3.005 -1.65 40
9.451 -3.253 -1.638 37
10.437 -3.561 -1.63 3
0 0 0 50
15.171 -5.094 -1.856 3
17.321 -5.774 -1.83 3
8.708 -2.944 -1.65 42
9.471 -3.174 -1.631 38
10.507 -3.49 -1.629 22
13.588 -4.477 -1.876 3
15.321 -5.01 -1.858 3
17.475 -5.672 -1.83 3
0 0 0 50
9.561 -3.117 -1.635 39
10.701 -3.458 -1.648 29
13.681 -4.385 -1.875 3
15.363 -4.885 -1.849 3
17.553 -5.541 -1.822 3
8.834 -2.826 -1.653 43
9.606 -3.044 -1.632 38
10.764 -3.382 -1.646 30
13.743 -4.282 -1.87 3
0 0 0 50
17.716 -5.436 -1.823 4
8.919 -2.771 -1.658 42
9.667 -2.976 -1.632 39
10.78 -3.29 -1.637 41
13.872 -4.199 -1.874 3
15.568 -4.674 -1.845 3
17.81 -5.308 -1.817 4
8.969 -2.705 -1.657 43
0 0 0 50
10.748 -3.184 -1.621 38
11.725 -3.444 -1.573 0
15.679 -4.569 -1.844 3
17.958 -5.194 -1.818 4
9.028 -2.642 -1.658 44
9.779 -2.835 -1.63 46
10.772 -3.095 -1.615 39
11.993 -3.418 -1.598 9
0 0 0 50
18.082 -5.074 -1.816 4
9.101 -2.582 -1.663 36
9.831 -2.763 -1.63 36
10.842 -3.02 -1.615 37
12.238 -3.381 -1.62 24
15.893 -4.355 -1.843 3
18.196 -4.949 -1.813 3
0 0 0 50
9.896 -2.693 -1.631 38
10.898 -2.938 -1.614 37
12.332 -3.297 -1.622 29
15.933 -4.225 -1.835 3
18.293 -4.815 -1.809 3
9.244 -2.456 -1.67 37
9.955 -2.62 -1.631 41
10.918 -2.847 -1.607 33
12.458 -3.221 -1.629 31
16.048 -4.115 -1.835 3
18.4 -4.68 -1.807 3
0 0 0 50
10.043 -2.553 -1.637 38
10.971 -2.763 -1.606 36
12.492 -3.12 -1.623 30
16.154 -4.001 -1.836 3
18.432 -4.531 -1.797 3
9.457 -2.343 -1.691 15
10.136 -2.487 -1.644 42
11.079 -2.694 -1.613 39
0 0 0 50
13.737 -3.284 -1.552 2
18.548 -4.399 -1.796 3
9.522 -2.274 -1.695 16
10.17 -2.406 -1.641 37
11.185 -2.621 -1.62 35
12.529 -2.911 -1.61 32
14.023 -3.231 -1.575 9
18.633 -4.259 -1.793 3
9.749 -2.242 -1.727 16
0 0 0 50
11.302 -2.551 -1.629 44
12.557 -2.808 -1.605 30
14.292 -3.17 -1.596 22
18.745 -4.124 -1.793 3
10.041 -2.221 -1.771 13
10.439 -2.287 -1.669 27
11.417 -2.478 -1.638 40
12.621 -2.715 -1.606 31
14.294 -3.049 -1.588 33
18.876 -3.994 -1.795 3
0 0 0 50
10.522 -2.214 -1.675 17
11.482 -2.394 -1.64 40
12.668 -2.617 -1.604 31
14.297 -2.928 -1.581 35
18.973 -3.855 -1.795 3
10.647 -2.171 -1.864 13
10.731 -2.165 -1.702 19
11.558 -2.31 -1.644 37
12.75 -2.524 -1.608 32
0 0 0 50
19.093 -3.718 -1.797 3
10.88 -2.123 -1.897 17
11.049 -2.135 -1.746 17
11.656 -2.23 -1.652 34
12.817 -2.43 -1.609 41
14.266 -2.68 -1.563 32
16.422 -3.06 -1.538 10
10.919 -2.036 -1.898 28
11.402 -2.105 -1.795 13
0 0 0 50
12.949 -2.345 -1.62 32
14.321 -2.57 -1.563 32
16.375 -2.915 -1.527 13
10.886 -1.938 -1.887 30
11.764 -2.072 -1.846 12
11.912 -2.077 -1.676 19
13.039 -2.251 -1.626 33
14.433 -2.47 -1.569 34
0 0 0 50
10.98 -1.86 -1.897 53
12.035 -2.017 -1.883 11
12.276 -2.037 -1.722 13
13.037 -2.141 -1.62 32
14.513 -2.363 -1.573 34
15.299 -2.467 -1.416 10
11.117 -1.787 -1.916 20
0 0 0 50
12.727 -2.003 -1.781 8
13.198 -2.057 -1.635 28
14.605 -2.254 -1.578 33
16.54 -2.53 -1.526 31
11.058 -1.683 -1.901 6
12.033 -1.812 -1.873 51
13.181 -1.963 -1.84 9
13.401 -1.976 -1.656 18
14.721 -2.15 -1.586 33
16.743 -2.422 -1.541 34
11.075 -1.592 -1.9 6
0 0 0 50
13.344 -1.876 -1.858 22
13.931 -1.938 -1.718 36
14.838 -2.044 -1.595 33
16.954 -2.313 -1.556 33
11.085 -1.5 -1.898 6
12.163 -1.627 -1.886 7
13.341 -1.765 -1.855 36
14.178 -1.856 -1.745 26
0 0 0 50
17.138 -2.2 -1.57 36
11.104 -1.409 -1.899 6
12.168 -1.527 -1.884 7
13.477 -1.672 -1.871 61
14.958 -1.835 -1.838 22
16.844 -2.045 -1.804 12
0 0 0 50
11.109 -1.317 -1.897 6
12.177 -1.427 -1.883 7
13.53 -1.567 -1.876 8
14.976 -1.715 -1.838 57
16.786 -1.902 -1.796 20
19.677 -2.206 -1.798 18
11.117 -1.226 -1.896 6
12.177 -1.326 -1.881 6
0 0 0 50
15.128 -1.609 -1.855 10
16.99 -1.787 -1.816 56
19.51 -2.03 -1.78 76
11.118 -1.134 -1.895 6
12.194 -1.227 -1.882 6
13.509 -1.343 -1.87 6
15.03 -1.476 -1.842 7
17.019 -1.652 -1.818 7
19.586 -1.88 -1.787 11
0 0 0 50
12.192 -1.127 -1.881 5
13.497 -1.232 -1.867 6
15.044 -1.355 -1.843 5
16.986 -1.512 -1.814 6
19.586 -1.723 -1.787 9
11.123 -0.95 -1.894 6
12.203 -1.028 -1.882 6
0 0 0 50
15.032 -1.233 -1.842 7
16.991 -1.376 -1.815 6
19.514 -1.561 -1.781 6
11.116 -0.859 -1.893 5
12.191 -0.928 -1.881 5
13.493 -1.013 -1.867 5
0 0 0 50
16.995 -1.241 -1.816 4
19.492 -1.405 -1.779 5
11.101 -0.768 -1.891 5
12.167 -0.828 -1.877 5
13.477 -0.903 -1.865 5
15.026 -0.991 -1.842 5
16.96 -1.103 -1.814 4
19.467 -1.247 -1.779 4
0 0 0 50
12.149 -0.728 -1.876 5
13.451 -0.792 -1.863 5
15.004 -0.869 -1.841 6
16.931 -0.966 -1.812 4
19.489 -1.094 -1.784 4
11.059 -0.584 -1.886 4
12.139 -0.629 -1.876 5
0 0 0 50
14.983 -0.749 -1.841 5
16.962 -0.834 -1.818 4
19.442 -0.94 -1.782 4
11.039 -0.495 -1.884 5
12.106 -0.531 -1.873 3
13.416 -0.577 -1.862 4
0 0 0 50
16.901 -0.699 -1.815 4
19.37 -0.785 -1.779 4
11.033 -0.406 -1.886 5
12.073 -0.433 -1.87 4
13.408 -0.47 -1.864 5
14.911 -0.511 -1.838 5
0 0 0 50
19.302 -0.631 -1.777 4
11.018 -0.317 -1.885 5
12.072 -0.337 -1.873 5
13.312 -0.362 -1.854 4
14.861 -0.392 -1.835 6
16.807 -0.431 -1.813 4
19.261 -0.479 -1.778 4
11.015 -0.228 -1.888 6
0 0 0 50
13.316 -0.256 -1.858 6
14.819 -0.274 -1.834 3
16.787 -0.299 -1.815 5
19.16 -0.328 -1.774 5
11.013 -0.14 -1.891 6
12.027 -0.145 -1.873 6
13.301 -0.15 -1.86 6
14.764 -0.157 -1.832 6
16.774 -0.168 -1.819 4
0 0 0 50
10.981 -0.053 -1.889 5
11.977 -0.05 -1.869 6
13.256 -0.047 -1.858 8
14.749 -0.043 -1.835 5
16.582 -0.039 -1.804 3
19.04 -0.033 -1.775 5
10.946 0.032 -1.888 5
0 0 0 50
13.215 0.055 -1.858 8
14.708 0.07 -1.835 9
16.579 0.088 -1.809 5
18.867 0.111 -1.766 5
10.895 0.118 -1.884 5
11.897 0.135 -1.866 6
13.174 0.156 -1.857 8
14.676 0.182 -1.837 9
0 0 0 50
18.815 0.253 -1.768 7
10.862 0.202 -1.883 5
11.862 0.227 -1.866 6
13.124 0.257 -1.856 9
14.599 0.293 -1.834 10
16.399 0.337 -1.803 8
18.847 0.397 -1.779 10
10.83 0.285 -1.882 6
0 0 0 50
13.07 0.356 -1.854 9
14.537 0.403 -1.832 8
16.347 0.46 -1.804 8
18.685 0.534 -1.772 4
10.8 0.368 -1.882 6
11.815 0.408 -1.87 7
13.057 0.456 -1.858 8
14.498 0.512 -1.834 7
16.274 0.582 -1.804 7
0 0 0 50
10.761 0.451 -1.881 6
11.777 0.497 -1.87 7
13.002 0.553 -1.857 8
14.437 0.62 -1.834 8
16.203 0.701 -1.804 6
18.627 0.814 -1.784 5
10.716 0.531 -1.879 6
11.727 0.585 -1.868 7
12.942 0.649 -1.855 7
0 0 0 50
16.169 0.823 -1.808 7
18.54 0.949 -1.785 5
10.687 0.612 -1.881 6
11.695 0.672 -1.87 7
12.888 0.744 -1.855 8
14.298 0.829 -1.831 6
16.115 0.94 -1.811 8
18.408 1.079 -1.781 5
10.643 0.69 -1.879 6
11.626 0.756 -1.866 7
0 0 0 50
14.238 0.934 -1.832 7
15.99 1.052 -1.806 7
18.269 1.206 -1.779 5
10.603 0.769 -1.88 6
11.587 0.842 -1.867 7
12.768 0.929 -1.853 8
14.162 1.033 -1.831 6
15.91 1.163 -1.806 7
0 0 0 50
10.566 0.845 -1.88 6
11.526 0.922 -1.865 6
12.703 1.017 -1.851 7
14.079 1.129 -1.828 6
15.836 1.272 -1.807 8
17.939 1.444 -1.766 5
10.503 0.917 -1.876 6
11.487 1.004 -1.865 6
0 0 0 50
14.02 1.227 -1.829 6
15.696 1.375 -1.8 7
17.849 1.567 -1.767 5
10.451 0.99 -1.873 6
11.436 1.084 -1.864 6
12.583 1.193 -1.85 8
13.922 1.32 -1.825 7
15.597 1.48 -1.798 6
17.741 1.685 -1.766 6
10.368 1.136 -1.873 5
11.346 1.241 -1.865 5
12.446 1.36 -1.846 5
0 0 0 50
15.364 1.679 -1.789 5
17.523 1.915 -1.765 54
10.345 1.208 -1.876 5
11.301 1.318 -1.866 6
12.35 1.439 -1.839 6
13.676 1.592 -1.818 5
15.291 1.779 -1.79 6
17.109 1.991 -1.734 46
10.276 1.274 -1.871 5
0 0 0 50
12.284 1.518 -1.838 6
13.614 1.681 -1.818 6
15.197 1.875 -1.788 5
17.004 2.098 -1.733 10
10.232 1.342 -1.87 5
11.216 1.469 -1.867 5
12.22 1.597 -1.836 5
13.536 1.767 -1.817 6
15.259 1.99 -1.805 9
17.083 2.226 -1.751 92
0 0 0 50
11.147 1.538 -1.863 6
12.171 1.676 -1.837 5
13.441 1.848 -1.812 6
15.27 2.097 -1.816 12
16.979 2.329 -1.75 8
10.117 1.47 -1.864 4
11.054 1.603 -1.855 5
12.113 1.752 -1.836 5
13.39 1.933 -1.814 3
0 0 0 50
16.945 2.44 -1.757 5
10.071 1.534 -1.863 4
10.976 1.666 -1.849 5
12.044 1.825 -1.834 5
13.33 2.015 -1.814 5
14.88 2.246 -1.787 6
16.888 2.546 -1.761 5
10.023 1.596 -1.861 4
0 0 0 50
11.973 1.896 -1.83 5
13.255 2.095 -1.813 6
14.818 2.337 -1.789 5
16.737 2.636 -1.755 4
9.983 1.659 -1.86 4
10.858 1.798 -1.845 6
11.926 1.969 -1.831 6
0 0 0 50
14.786 2.432 -1.794 5
16.702 2.742 -1.76 4
9.964 1.723 -1.864 5
10.831 1.867 -1.847 6
11.885 2.043 -1.832 6
13.122 2.249 -1.81 6
14.672 2.51 -1.788 4
16.613 2.837 -1.76 4
0 0 0 50
10.804 1.934 -1.85 5
11.835 2.113 -1.832 5
13.072 2.327 -1.811 5
14.632 2.599 -1.792 5
16.504 2.927 -1.758 4
9.895 1.844 -1.864 5
10.743 1.995 -1.846 5
11.782 2.181 -1.831 5
13.008 2.401 -1.81 6
14.547 2.679 -1.789 4
0 0 0 50
9.848 1.9 -1.862 5
10.703 2.057 -1.845 5
11.736 2.248 -1.83 6
12.948 2.473 -1.809 6
14.475 2.758 -1.788 4
16.34 3.107 -1.756 3
0 0 0 50
10.673 2.12 -1.847 5
11.701 2.316 -1.832 5
12.924 2.55 -1.812 5
14.448 2.844 -1.792 4
16.297 3.201 -1.76 3
9.777 2.012 -1.86 4
10.631 2.179 -1.846 5
11.671 2.384 -1.833 4
0 0 0 50
14.379 2.92 -1.79 3
16.253 3.293 -1.762 3
9.756 2.068 -1.862 4
10.611 2.241 -1.848 5
11.616 2.444 -1.831 4
12.811 2.687 -1.809 4
14.311 2.994 -1.788 3
16.144 3.37 -1.758 3
9.729 2.124 -1.862 4
0 0 0 50
11.582 2.509 -1.831 4
12.767 2.757 -1.808 4
14.281 3.075 -1.791 3
16.118 3.463 -1.761 3
9.684 2.174 -1.859 3
10.545 2.357 -1.847 4
11.552 2.572 -1.832 4
0 0 0 50
14.232 3.15 -1.791 2
16.057 3.544 -1.761 3
9.66 2.226 -1.859 3
10.508 2.411 -1.846 3
11.529 2.635 -1.833 4
12.706 2.894 -1.811 3
14.217 3.229 -1.793 2
15.996 3.625 -1.76 3
9.655 2.282 -1.862 4
10.48 2.466 -1.845 4
11.5 2.696 -1.833 4
0 0 0 50
14.157 3.297 -1.791 3
15.932 3.702 -1.757 3
9.622 2.33 -1.86 3
10.483 2.527 -1.85 3
11.476 2.755 -1.833 3
12.614 3.018 -1.806 2
14.117 3.368 -1.79 3
15.902 3.784 -1.758 3
9.615 2.383 -1.863 4
10.438 2.575 -1.845 4
11.455 2.815 -1.834 3
0 0 0 50
14.061 3.432 -1.787 3
15.906 3.872 -1.763 3
9.58 2.427 -1.859 3
10.436 2.632 -1.848 3
11.432 2.872 -1.833 3
12.599 3.154 -1.811 3
14.078 3.513 -1.791 2
15.845 3.943 -1.759 3
0 0 0 50
10.411 2.682 -1.847 3
11.414 2.928 -1.832 3
12.574 3.214 -1.81 3
14.067 3.585 -1.793 3
15.805 4.017 -1.757 3
9.582 2.531 -1.865 3
10.406 2.736 -1.848 3
11.405 2.986 -1.834 3
12.558 3.276 -1.809 2
14.012 3.644 -1.788 3
0 0 0 50
9.56 2.575 -1.863 3
10.382 2.783 -1.846 3
11.378 3.037 -1.831 3
12.556 3.339 -1.811 3
13.982 3.706 -1.785 3
15.798 4.176 -1.759 3
9.538 2.616 -1.86 3
10.368 2.83 -1.844 3
11.373 3.092 -1.831 3
0 0 0 50
14.018 3.784 -1.791 3
15.801 4.253 -1.76 4
9.552 2.666 -1.863 3
10.363 2.879 -1.844 3
11.36 3.143 -1.83 3
12.521 3.452 -1.807 3
14.003 3.847 -1.789 3
15.796 4.328 -1.758 3
9.536 2.707 -1.86 3
10.38 2.933 -1.847 3
0 0 0 50
12.533 3.513 -1.808 3
14.002 3.911 -1.788 3
15.783 4.397 -1.756 4
9.543 2.753 -1.862 3
10.39 2.983 -1.848 3
11.383 3.254 -1.833 3
12.537 3.571 -1.808 3
14.03 3.982 -1.79 3
15.829 4.48 -1.759 3
0 0 0 50
10.384 3.026 -1.847 3
11.378 3.301 -1.83 3
12.529 3.622 -1.805 3
14.011 4.036 -1.786 3
15.844 4.552 -1.758 4
9.553 2.838 -1.862 2
10.374 3.067 -1.843 3
11.392 3.353 -1.83 3
12.56 3.683 -1.807 3
0 0 0 50
15.826 4.612 -1.752 4
9.56 2.878 -1.861 3
10.397 3.115 -1.845 3
11.415 3.405 -1.832 3
12.597 3.743 -1.809 3
14.065 4.166 -1.786 3
15.843 4.679 -1.75 4
9.564 2.916 -1.86 2
10.393 3.154 -1.842 3
0 0 0 50
12.613 3.796 -1.808 3
14.065 4.219 -1.781 4
15.92 4.762 -1.753 4
9.576 2.955 -1.859 3
10.404 3.196 -1.84 3
11.452 3.502 -1.83 3
12.627 3.846 -1.805 3
14.124 4.287 -1.783 3
0 0 0 50
9.609 2.999 -1.862 2
10.433 3.24 -1.841 3
11.468 3.546 -1.828 3
12.675 3.904 -1.807 3
14.164 4.349 -1.782 3
15.989 4.894 -1.747 3
9.616 3.033 -1.859 2
10.464 3.284 -1.842 3
11.502 3.594 -1.829 4
12.712 3.956 -1.806 3
0 0 0 50
16.063 4.969 -1.748 3
9.654 3.074 -1.861 2
10.491 3.324 -1.842 3
11.519 3.634 -1.825 3
12.744 4.006 -1.804 4
14.232 4.458 -1.776 3
16.071 5.02 -1.739 3
9.665 3.105 -1.858 3
10.507 3.36 -1.839 3
0 0 0 50
12.775 4.052 -1.801 3
14.269 4.511 -1.772 3
16.209 5.109 -1.744 3
9.693 3.14 -1.858 3
10.538 3.397 -1.837 3
11.607 3.726 -1.825 3
12.843 4.107 -1.802 3
14.345 4.572 -1.773 3
16.302 5.181 -1.744 3
9.721 3.173 -1.856 3
0 0 0 50
11.673 3.776 -1.828 3
12.893 4.154 -1.801 4
14.413 4.629 -1.771 3
16.427 5.261 -1.746 3
9.766 3.209 -1.858 2
10.603 3.467 -1.833 3
11.694 3.808 -1.822 3
12.94 4.198 -1.797 4
14.513 4.692 -1.772 3
16.446 5.303 -1.735 3
0 0 0 50
10.664 3.508 -1.836 3
11.738 3.845 -1.82 3
13.023 4.25 -1.798 4
14.568 4.739 -1.767 3
16.602 5.386 -1.738 3
9.851 3.274 -1.858 2
10.702 3.539 -1.833 3
11.807 3.888 -1.82 4
13.072 4.289 -1.794 4
14.676 4.8 -1.768 3
16.769 5.469 -1.742 3
0 0 0 50
10.772 3.579 -1.836 3
11.862 3.925 -1.819 3
13.162 4.339 -1.795 4
14.758 4.85 -1.765 3
16.845 5.52 -1.734 3
9.917 3.323 -1.852 3
10.83 3.613 -1.835 3
11.936 3.965 -1.818 3
13.218 4.374 -1.79 4
14.869 4.905 -1.764 3
17.031 5.604 -1.738 4
9.974 3.353 -1.853 3
0 0 0 50
11.991 3.996 -1.815 3
13.337 4.428 -1.793 4
14.964 4.953 -1.76 3
17.162 5.665 -1.734 4
10.029 3.38 -1.853 3
10.926 3.665 -1.829 3
12.085 4.037 -1.817 4
13.405 4.462 -1.788 4
15.11 5.014 -1.762 3
0 0 0 50
10.089 3.406 -1.852 3
10.993 3.694 -1.829 3
12.153 4.067 -1.814 3
13.529 4.512 -1.79 3
15.263 5.074 -1.764 3
17.417 5.775 -1.724 4
10.116 3.42 -1.847 3
11.068 3.724 -1.83 3
12.238 4.101 -1.814 4
13.585 4.536 -1.783 3
15.345 5.108 -1.757 3
0 0 0 50
10.197 3.448 -1.85 3
11.155 3.754 -1.832 3
12.331 4.134 -1.814 3
13.697 4.575 -1.783 3
15.499 5.162 -1.758 3
17.899 5.946 -1.733 4
10.253 3.465 -1.848 3
0 0 0 50
12.411 4.159 -1.811 4
13.824 4.616 -1.783 3
15.651 5.211 -1.757 3
18.282 6.072 -1.749 7
10.315 3.482 -1.847 3
11.274 3.789 -1.825 3
12.499 4.184 -1.809 3
13.915 4.642 -1.779 3
15.825 5.263 -1.758 3
18.581 6.165 -1.756 16
10.396 3.503 -1.849 3
11.37 3.814 -1.825 3
12.61 4.214 -1.81 3
14.033 4.673 -1.777 3
15.918 5.285 -1.75 3
18.701 6.194 -1.744 22
0 0 0 50
11.451 3.832 -1.824 3
12.696 4.232 -1.806 4
14.155 4.702 -1.775 3
16.13 5.343 -1.752 3
18.864 6.233 -1.737 23
10.532 3.528 -1.845 3
11.521 3.843 -1.821 4
12.794 4.251 -1.804 3
14.274 4.727 -1.772 3
16.279 5.375 -1.749 3
18.98 6.252 -1.725 24
0 0 0 50
11.62 3.861 -1.821 3
12.891 4.266 -1.802 3
14.437 4.762 -1.774 3
16.424 5.402 -1.744 3
19.106 6.269 -1.712 24
10.664 3.542 -1.84 3
11.715 3.874 -1.821 4
13.014 4.287 -1.802 4
14.587 4.789 -1.774 3
16.601 5.436 -1.742 3
19.283 6.299 -1.705 24
10.745 3.549 -1.84 4
11.802 3.882 -1.819 4
13.105 4.294 -1.797 3
14.673 4.792 -1.766 3
0 0 0 50
19.444 6.318 -1.695 25
10.814 3.55 -1.837 3
11.886 3.886 -1.817 4
13.235 4.31 -1.798 3
14.819 4.81 -1.764 3
17 5.503 -1.741 3
19.625 6.338 -1.685 25
10.9 3.554 -1.838 4
11.985 3.891 -1.816 3
13.352 4.319 -1.797 3
14.937 4.816 -1.76 3
17.125 5.507 -1.733 3
0 0 0 50
10.969 3.55 -1.834 3
12.072 3.89 -1.813 4
13.459 4.321 -1.794 3
15.124 4.84 -1.763 3
17.387 5.549 -1.737 3
20.037 6.381 -1.671 24
11.062 3.55 -1.835 3
12.172 3.89 -1.813 4
13.562 4.318 -1.79 3
15.279 4.85 -1.762 3
17.543 5.553 -1.73 3
20.278 6.405 -1.667 18
11.145 3.545 -1.835 4
12.266 3.885 -1.811 4
13.706 4.325 -1.792 3
0 0 0 50
17.687 5.549 -1.723 3
20.517 6.423 -1.661 19
11.231 3.538 -1.834 3
12.365 3.879 -1.81 3
13.808 4.316 -1.788 3
15.549 4.844 -1.754 3
17.945 5.576 -1.727 3
20.772 6.44 -1.656 23
11.289 3.519 -1.829 3
12.464 3.869 -1.808 4
13.946 4.313 -1.788 4
15.705 4.842 -1.753 3
18.202 5.597 -1.73 3
0 0 0 50
11.412 3.517 -1.835 4
12.571 3.858 -1.808 3
14.058 4.299 -1.786 3
15.842 4.83 -1.749 3
18.37 5.586 -1.724 3
21.407 6.495 -1.658 27
11.466 3.492 -1.829 4
12.659 3.84 -1.806 4
14.165 4.282 -1.783 4
16 4.821 -1.747 3
18.584 5.585 -1.723 3
21.702 6.507 -1.655 19
11.544 3.472 -1.828 3
