# .PCD v.7 - Point Cloud Data file format
VERSION .7
FIELDS x y z intensity
SIZE 4 4 4 4
TYPE F F F F
COUNT 1 1 1 1
WIDTH 2319
HEIGHT 1
VIEWPOINT 0 0 0 1 0 0 0
POINTS 2319
DATA ascii
11.033 2.367 -1.894 6
12.079 2.576 -1.879 8
13.26 2.813 -1.851 9
8.713 1.832 -1.925 7
9.432 1.969 -1.927 4
10.187 2.112 -1.914 6
11.071 2.281 -1.9 6
0 0 0 50
13.292 2.705 -1.855 9
8.753 1.765 -1.932 27
9.432 1.887 -1.925 4
10.164 2.02 -1.908 5
11.141 2.198 -1.91 6
12.048 2.363 -1.872 8
13.303 2.593 -1.856 9
0 0 0 50
9.417 1.803 -1.921 27
10.16 1.931 -1.906 5
11.155 2.106 -1.912 7
12.101 2.269 -1.88 7
13.328 2.484 -1.859 9
8.773 1.618 -1.934 4
9.413 1.722 -1.919 17
10.158 1.844 -1.905 20
0 0 0 50
12.147 2.174 -1.887 6
13.394 2.381 -1.868 9
8.794 1.547 -1.937 4
9.452 1.648 -1.926 4
10.195 1.763 -1.911 22
11.05 1.896 -1.893 12
12.167 2.073 -1.889 7
13.509 2.284 -1.884 9
0 0 0 50
9.44 1.565 -1.923 4
10.232 1.681 -1.917 5
11.143 1.816 -1.908 25
12.198 1.972 -1.894 8
13.59 2.181 -1.895 10
8.79 1.394 -1.934 3
9.456 1.486 -1.925 4
10.234 1.593 -1.917 5
0 0 0 50
12.203 1.868 -1.895 27
13.529 2.054 -1.887 7
8.791 1.318 -1.934 3
9.457 1.404 -1.925 4
10.241 1.506 -1.918 5
11.159 1.626 -1.91 7
0 0 0 50
13.459 1.928 -1.877 28
8.799 1.244 -1.935 4
9.461 1.324 -1.925 3
10.255 1.42 -1.92 5
11.138 1.527 -1.906 5
12.231 1.662 -1.899 6
13.497 1.817 -1.883 13
8.809 1.169 -1.936 3
0 0 0 50
10.256 1.332 -1.92 4
11.137 1.431 -1.906 5
12.218 1.555 -1.897 4
13.413 1.69 -1.871 6
8.814 1.094 -1.937 3
9.467 1.161 -1.925 4
10.267 1.245 -1.922 3
11.119 1.333 -1.903 3
12.197 1.447 -1.894 4
0 0 0 50
8.823 1.019 -1.938 2
9.484 1.081 -1.928 3
10.277 1.157 -1.923 3
11.149 1.24 -1.908 3
12.201 1.341 -1.894 4
13.398 1.456 -1.87 5
8.813 0.942 -1.936 2
9.489 1 -1.929 3
10.281 1.069 -1.924 3
11.152 1.145 -1.908 3
0 0 0 50
13.384 1.339 -1.869 6
8.828 0.867 -1.939 3
9.501 0.92 -1.931 3
10.302 0.983 -1.927 3
11.168 1.05 -1.911 4
12.233 1.133 -1.9 4
13.445 1.228 -1.877 5
8.842 0.791 -1.941 2
9.499 0.837 -1.931 3
0 0 0 50
11.166 0.953 -1.911 4
12.221 1.026 -1.898 5
13.449 1.112 -1.878 4
8.842 0.715 -1.941 3
9.503 0.755 -1.931 3
10.311 0.804 -1.929 3
11.169 0.856 -1.911 4
12.232 0.921 -1.9 5
0 0 0 50
8.845 0.639 -1.941 3
9.513 0.672 -1.933 4
10.313 0.715 -1.929 3
11.172 0.759 -1.912 4
12.235 0.815 -1.9 4
13.45 0.877 -1.879 5
8.862 0.563 -1.945 5
9.502 0.589 -1.931 4
10.305 0.625 -1.928 3
11.176 0.662 -1.912 3
12.246 0.708 -1.902 4
0 0 0 50
8.851 0.485 -1.942 3
9.539 0.509 -1.938 3
10.328 0.536 -1.932 3
11.2 0.566 -1.916 3
12.254 0.602 -1.903 4
13.477 0.643 -1.883 5
8.868 0.408 -1.946 2
9.533 0.425 -1.936 3
10.321 0.445 -1.93 3
0 0 0 50
12.273 0.496 -1.906 4
13.468 0.526 -1.882 5
8.866 0.331 -1.945 2
9.558 0.343 -1.941 3
10.343 0.357 -1.934 3
11.207 0.371 -1.917 4
12.276 0.389 -1.907 5
0 0 0 50
8.869 0.254 -1.945 2
9.541 0.26 -1.938 3
10.343 0.267 -1.934 3
11.22 0.274 -1.919 4
12.277 0.282 -1.907 4
13.525 0.292 -1.889 5
8.883 0.177 -1.948 2
9.56 0.177 -1.941 3
10.342 0.177 -1.934 3
11.237 0.176 -1.922 3
12.275 0.175 -1.906 4
0 0 0 50
8.882 0.1 -1.948 3
9.563 0.094 -1.942 3
10.35 0.087 -1.935 4
11.224 0.078 -1.92 4
12.299 0.068 -1.91 5
13.5 0.056 -1.885 6
8.886 0.023 -1.948 3
9.57 0.011 -1.943 3
10.358 -0.002 -1.936 4
11.258 -0.018 -1.925 4
12.31 -0.038 -1.911 4
0 0 0 50
8.894 -0.054 -1.95 3
9.579 -0.072 -1.944 3
10.377 -0.093 -1.939 4
11.238 -0.116 -1.921 5
12.319 -0.145 -1.912 4
13.555 -0.18 -1.892 6
8.9 -0.132 -1.951 3
9.58 -0.156 -1.944 3
10.373 -0.184 -1.938 3
0 0 0 50
12.322 -0.254 -1.912 4
13.559 -0.299 -1.892 5
8.908 -0.21 -1.952 3
9.587 -0.24 -1.945 3
10.389 -0.275 -1.941 3
11.275 -0.315 -1.926 4
12.355 -0.364 -1.916 5
13.611 -0.42 -1.899 5
8.909 -0.288 -1.952 3
0 0 0 50
10.396 -0.366 -1.942 3
11.287 -0.414 -1.928 3
12.367 -0.472 -1.917 5
13.6 -0.539 -1.896 5
8.909 -0.366 -1.952 3
9.609 -0.409 -1.949 3
10.419 -0.458 -1.945 3
0 0 0 50
12.378 -0.581 -1.918 4
13.621 -0.66 -1.898 5
8.921 -0.445 -1.954 3
9.62 -0.493 -1.951 3
10.43 -0.549 -1.947 3
11.325 -0.614 -1.933 3
12.399 -0.69 -1.921 5
13.646 -0.78 -1.9 5
8.939 -0.524 -1.958 2
0 0 0 50
10.446 -0.642 -1.949 3
11.333 -0.714 -1.934 3
12.408 -0.8 -1.921 4
13.664 -0.902 -1.902 5
8.926 -0.601 -1.954 3
9.65 -0.663 -1.956 2
10.447 -0.734 -1.949 3
0 0 0 50
12.431 -0.91 -1.924 4
13.695 -1.024 -1.905 5
8.95 -0.681 -1.959 2
9.649 -0.749 -1.955 2
10.464 -0.827 -1.951 3
11.357 -0.915 -1.936 4
12.444 -1.022 -1.924 4
13.729 -1.149 -1.908 4
8.965 -0.762 -1.962 2
9.655 -0.834 -1.955 2
0 0 0 50
11.355 -1.014 -1.935 4
12.455 -1.132 -1.925 5
13.755 -1.272 -1.91 4
8.985 -0.842 -1.966 2
9.671 -0.92 -1.958 2
10.467 -1.011 -1.95 3
0 0 0 50
12.482 -1.243 -1.928 4
13.745 -1.392 -1.907 4
8.981 -0.921 -1.965 2
9.663 -1.004 -1.956 2
10.498 -1.107 -1.955 3
11.399 -1.219 -1.94 3
12.478 -1.354 -1.926 4
13.784 -1.518 -1.911 4
8.991 -1.002 -1.966 2
9.686 -1.093 -1.96 2
0 0 0 50
11.43 -1.324 -1.944 4
12.504 -1.468 -1.928 4
13.808 -1.644 -1.912 4
9.002 -1.083 -1.968 3
9.684 -1.179 -1.959 3
10.507 -1.295 -1.955 3
11.454 -1.429 -1.947 4
12.51 -1.581 -1.928 4
13.844 -1.772 -1.915 4
8.998 -1.163 -1.967 2
0 0 0 50
10.522 -1.39 -1.957 3
11.475 -1.534 -1.95 4
12.542 -1.696 -1.931 4
13.835 -1.893 -1.912 4
9.008 -1.244 -1.969 2
9.72 -1.355 -1.965 3
0 0 0 50
11.468 -1.635 -1.947 3
12.559 -1.81 -1.932 3
13.872 -2.022 -1.915 4
9.02 -1.325 -1.971 2
9.731 -1.443 -1.966 2
0 0 0 50
11.463 -1.735 -1.945 3
12.577 -1.923 -1.933 4
13.907 -2.15 -1.918 4
8.999 -1.402 -1.966 2
9.743 -1.531 -1.968 2
10.554 -1.674 -1.96 3
11.494 -1.842 -1.949 3
12.605 -2.041 -1.936 3
0 0 0 50
9.05 -1.49 -1.976 2
9.736 -1.618 -1.966 2
10.577 -1.773 -1.963 3
11.515 -1.949 -1.951 3
12.622 -2.157 -1.936 3
13.95 -2.408 -1.919 4
9.044 -1.57 -1.975 2
9.762 -1.709 -1.97 2
0 0 0 50
11.519 -2.051 -1.951 3
12.639 -2.271 -1.937 4
14.004 -2.541 -1.924 4
9.041 -1.65 -1.974 2
9.77 -1.797 -1.971 2
10.584 -1.963 -1.963 3
0 0 0 50
12.678 -2.393 -1.942 3
14.042 -2.676 -1.927 4
9.055 -1.734 -1.976 2
9.757 -1.883 -1.968 2
10.603 -2.062 -1.965 3
11.554 -2.265 -1.954 4
12.689 -2.509 -1.941 4
14.072 -2.807 -1.929 4
9.044 -1.814 -1.974 2
9.762 -1.971 -1.969 3
0 0 0 50
11.582 -2.375 -1.957 4
12.709 -2.627 -1.943 4
14.12 -2.943 -1.933 5
9.071 -1.9 -1.98 3
9.778 -2.062 -1.971 3
10.634 -2.258 -1.969 3
11.595 -2.481 -1.958 4
0 0 0 50
14.133 -3.072 -1.933 4
9.074 -1.981 -1.98 2
9.793 -2.152 -1.974 3
10.647 -2.356 -1.971 4
11.629 -2.592 -1.963 3
12.772 -2.869 -1.949 4
0 0 0 50
9.069 -2.062 -1.979 2
9.794 -2.24 -1.974 3
10.661 -2.455 -1.973 3
11.619 -2.694 -1.96 4
12.807 -2.992 -1.953 4
14.194 -3.342 -1.937 4
9.068 -2.143 -1.979 2
9.781 -2.326 -1.971 3
10.682 -2.557 -1.976 3
11.647 -2.807 -1.964 4
0 0 0 50
14.225 -3.48 -1.939 4
9.071 -2.227 -1.98 2
9.799 -2.42 -1.974 3
10.668 -2.65 -1.973 3
11.648 -2.913 -1.963 3
12.833 -3.231 -1.954 4
0 0 0 50
9.1 -2.316 -1.986 3
9.814 -2.511 -1.977 3
10.69 -2.751 -1.977 3
11.693 -3.029 -1.97 4
12.871 -3.356 -1.958 4
14.237 -3.739 -1.936 3
9.092 -2.396 -1.985 2
9.821 -2.602 -1.979 3
0 0 0 50
11.703 -3.138 -1.971 4
12.879 -3.476 -1.958 3
14.317 -3.891 -1.945 4
9.102 -2.481 -1.988 2
9.827 -2.692 -1.981 3
10.719 -2.953 -1.981 3
11.693 -3.241 -1.968 3
12.886 -3.594 -1.958 4
0 0 0 50
9.091 -2.561 -1.986 2
9.833 -2.784 -1.982 3
10.709 -3.048 -1.98 3
11.711 -3.352 -1.971 4
12.884 -3.71 -1.957 3
14.344 -4.158 -1.946 4
9.089 -2.642 -1.986 2
9.854 -2.878 -1.987 3
0 0 0 50
11.721 -3.461 -1.973 3
12.925 -3.84 -1.963 3
14.363 -4.294 -1.947 3
9.101 -2.729 -1.99 2
9.848 -2.966 -1.986 3
10.745 -3.252 -1.987 3
11.733 -3.57 -1.975 3
12.938 -3.961 -1.964 3
14.394 -4.434 -1.95 4
0 0 0 50
9.861 -3.06 -1.99 3
10.745 -3.351 -1.988 3
11.733 -3.678 -1.975 3
12.93 -4.077 -1.963 3
14.404 -4.569 -1.951 4
9.113 -2.899 -1.995 2
9.852 -3.147 -1.989 3
10.742 -3.447 -1.988 2
11.741 -3.788 -1.977 2
0 0 0 50
14.426 -4.707 -1.953 3
9.11 -2.98 -1.996 2
9.847 -3.235 -1.99 3
10.756 -3.549 -1.992 2
11.736 -3.892 -1.976 3
13.078 -4.361 -1.986 10
14.48 -4.856 -1.96 3
9.1 -3.059 -1.995 2
9.86 -3.328 -1.994 3
0 0 0 50
11.747 -4.002 -1.979 3
13.006 -4.455 -1.975 11
14.44 -4.975 -1.955 3
9.107 -3.145 -1.999 2
9.859 -3.418 -1.995 2
10.738 -3.738 -1.991 3
11.736 -4.106 -1.979 2
12.966 -4.559 -1.97 11
14.473 -5.118 -1.959 3
9.104 -3.227 -2.001 2
0 0 0 50
10.737 -3.836 -1.993 2
11.731 -4.21 -1.979 3
12.868 -4.641 -1.956 8
14.469 -5.247 -1.96 4
9.09 -3.305 -2 3
9.83 -3.586 -1.994 3
10.73 -3.93 -1.993 3
11.82 -4.348 -1.996 7
12.975 -4.796 -1.974 3
0 0 0 50
9.094 -3.388 -2.004 3
9.833 -3.675 -1.997 3
10.733 -4.027 -1.996 3
11.788 -4.442 -1.993 10
12.971 -4.911 -1.975 3
14.468 -5.507 -1.962 4
9.074 -3.462 -2.003 2
0 0 0 50
10.726 -4.121 -1.998 2
11.743 -4.531 -1.988 19
12.973 -5.03 -1.977 3
14.49 -5.647 -1.966 4
9.078 -3.547 -2.007 2
9.804 -3.842 -1.997 3
10.701 -4.209 -1.996 3
11.696 -4.619 -1.983 11
12.999 -5.157 -1.983 3
0 0 0 50
9.052 -3.618 -2.005 2
9.815 -3.934 -2.003 2
10.727 -4.316 -2.005 3
11.634 -4.699 -1.975 7
12.988 -5.268 -1.985 3
14.457 -5.893 -1.967 3
9.03 -3.69 -2.004 2
0 0 0 50
10.757 -4.423 -2.014 8
11.704 -4.831 -1.991 3
12.945 -5.366 -1.982 3
14.483 -6.033 -1.974 4
9.026 -3.769 -2.008 2
9.781 -4.096 -2.004 2
10.704 -4.497 -2.008 14
11.704 -4.936 -1.995 3
12.931 -5.475 -1.983 3
0 0 0 50
9.003 -3.84 -2.007 2
9.753 -4.171 -2.003 3
10.672 -4.578 -2.006 16
11.685 -5.031 -1.996 3
12.915 -5.583 -1.985 3
14.409 -6.258 -1.971 3
8.989 -3.914 -2.009 2
9.736 -4.251 -2.005 3
10.603 -4.643 -1.998 9
11.66 -5.123 -1.996 3
12.867 -5.676 -1.983 3
0 0 0 50
8.985 -3.992 -2.014 2
9.733 -4.334 -2.009 3
10.549 -4.711 -1.993 7
11.623 -5.208 -1.995 3
12.883 -5.796 -1.99 3
14.33 -6.473 -1.97 3
8.958 -4.059 -2.013 2
9.767 -4.435 -2.022 6
0 0 0 50
11.646 -5.32 -2.005 4
12.873 -5.902 -1.994 3
14.345 -6.605 -1.978 3
8.913 -4.117 -2.009 2
9.708 -4.494 -2.016 10
10.57 -4.905 -2.009 2
11.57 -5.385 -1.997 3
12.806 -5.981 -1.99 3
13.923 -6.529 -1.925 4
8.91 -4.193 -2.015 2
0 0 0 50
10.564 -4.992 -2.014 2
11.532 -5.467 -1.997 3
12.759 -6.069 -1.989 3
12.488 -5.964 -1.733 4
8.885 -4.258 -2.016 2
9.627 -4.622 -2.012 15
10.509 -5.056 -2.011 2
11.52 -5.559 -2.002 2
12.271 -5.941 -1.92 2
12.286 -5.971 -1.711 6
8.836 -4.31 -2.012 2
9.583 -4.682 -2.01 9
0 0 0 50
11.474 -5.632 -2.002 3
12.031 -5.925 -1.889 3
12.056 -5.96 -1.685 2
8.83 -4.381 -2.018 2
9.523 -4.732 -2.005 6
10.463 -5.21 -2.017 2
11.439 -5.71 -2.003 2
11.963 -5.99 -1.886 2
11.903 -5.982 -1.671 2
0 0 0 50
9.483 -4.792 -2.004 3
10.427 -5.278 -2.018 2
11.409 -5.789 -2.006 2
11.997 -6.105 -1.9 1
11.74 -5.995 -1.656 3
8.764 -4.495 -2.019 2
9.491 -4.873 -2.014 3
0 0 0 50
11.356 -5.854 -2.006 2
12.569 -6.498 -2 3
11.713 -6.075 -1.66 9
8.729 -4.549 -2.019 3
9.461 -4.935 -2.017 3
10.328 -5.395 -2.016 3
11.315 -5.923 -2.008 3
12.526 -6.574 -2.002 3
11.619 -6.116 -1.654 22
8.707 -4.607 -2.023 3
9.43 -4.994 -2.019 3
10.299 -5.462 -2.02 2
0 0 0 50
12.473 -6.644 -2.004 3
11.662 -6.23 -1.669 8
8.676 -4.659 -2.024 3
9.384 -5.042 -2.018 3
10.252 -5.516 -2.02 3
11.202 -6.038 -2.007 2
12.412 -6.706 -2.004 3
11.747 -6.364 -1.691 8
8.635 -4.705 -2.024 2
9.346 -5.095 -2.02 3
10.197 -5.565 -2.019 2
11.172 -6.106 -2.012 2
12.371 -6.777 -2.008 3
11.938 -6.557 -1.728 13
0 0 0 50
9.32 -5.152 -2.025 3
10.165 -5.623 -2.023 3
11.082 -6.14 -2.006 2
12.313 -6.835 -2.01 3
12.02 -6.689 -1.75 13
8.553 -4.789 -2.025 3
0 0 0 50
10.114 -5.668 -2.023 2
11.078 -6.217 -2.016 2
12.234 -6.878 -2.008 3
11.991 -6.757 -1.756 6
8.511 -4.828 -2.024 3
9.23 -5.236 -2.025 3
10.07 -5.715 -2.025 2
10.997 -6.248 -2.013 2
12.16 -6.921 -2.008 3
0 0 0 50
8.468 -4.864 -2.025 2
9.18 -5.271 -2.024 3
10.02 -5.756 -2.026 2
10.959 -6.301 -2.018 2
12.108 -6.972 -2.012 3
12.229 -7.055 -1.815 8
8.441 -4.906 -2.028 3
0 0 0 50
9.961 -5.788 -2.026 2
10.885 -6.33 -2.015 2
12.04 -7.011 -2.012 3
12.311 -7.182 -1.838 8
8.394 -4.935 -2.028 2
9.098 -5.347 -2.028 3
9.937 -5.839 -2.032 2
10.846 -6.377 -2.02 4
11.99 -7.057 -2.017 3
12.343 -7.278 -1.856 7
0 0 0 50
9.036 -5.367 -2.025 3
9.867 -5.86 -2.029 2
10.791 -6.411 -2.022 3
11.915 -7.085 -2.017 3
12.519 -7.455 -1.895 2
8.264 -4.964 -2.018 4
9.006 -5.405 -2.03 3
9.823 -5.893 -2.032 2
10.722 -6.433 -2.021 2
11.859 -7.121 -2.02 3
0 0 0 50
8.21 -4.981 -2.016 5
8.952 -5.425 -2.029 3
9.749 -5.905 -2.028 2
10.648 -6.449 -2.02 2
11.768 -7.131 -2.018 3
12.54 -7.608 -1.924 3
8.177 -5.008 -2.019 6
0 0 0 50
9.69 -5.922 -2.028 2
10.622 -6.49 -2.027 2
11.695 -7.149 -2.018 3
12.292 -7.52 -1.9 4
8.136 -5.028 -2.019 9
8.837 -5.453 -2.026 3
9.654 -5.951 -2.032 2
10.517 -6.479 -2.019 2
11.613 -7.156 -2.017 3
0 0 0 50
8.126 -5.064 -2.028 9
8.799 -5.474 -2.028 3
9.592 -5.96 -2.031 2
10.502 -6.521 -2.029 3
11.545 -7.168 -2.018 3
12.156 -7.551 -1.905 3
8.095 -5.085 -2.031 12
8.756 -5.489 -2.03 2
0 0 0 50
10.448 -6.535 -2.031 3
11.469 -7.171 -2.018 3
12.005 -7.508 -1.895 3
8.054 -5.096 -2.032 11
8.686 -5.484 -2.025 2
9.48 -5.975 -2.031 2
10.367 -6.527 -2.028 2
0 0 0 50
11.94 -7.514 -1.897 2
8.014 -5.106 -2.033 13
8.655 -5.501 -2.029 3
9.43 -5.982 -2.032 2
10.296 -6.522 -2.025 2
11.332 -7.174 -2.02 4
11.881 -7.52 -1.902 2
7.963 -5.105 -2.03 18
0 0 0 50
9.385 -5.987 -2.033 2
10.263 -6.538 -2.031 3
11.278 -7.177 -2.023 3
11.9 -7.57 -1.917 2
7.935 -5.116 -2.034 19
8.58 -5.516 -2.032 3
9.326 -5.981 -2.032 2
10.202 -6.532 -2.031 2
11.211 -7.169 -2.023 3
0 0 0 50
7.906 -5.123 -2.036 17
8.534 -5.513 -2.032 3
9.27 -5.973 -2.03 3
10.123 -6.51 -2.026 2
11.157 -7.165 -2.026 2
11.986 -7.691 -1.956 1
7.882 -5.131 -2.039 15
8.476 -5.499 -2.029 3
9.238 -5.977 -2.034 2
0 0 0 50
11.113 -7.162 -2.03 2
12.028 -7.744 -1.975 1
7.846 -5.128 -2.04 12
8.458 -5.508 -2.034 3
9.197 -5.971 -2.036 2
10.035 -6.499 -2.031 2
10.991 -7.105 -2.019 2
0 0 0 50
7.819 -5.127 -2.042 9
8.409 -5.493 -2.032 3
9.155 -5.96 -2.036 2
9.974 -6.477 -2.029 2
10.959 -7.101 -2.024 2
12.193 -7.889 -2.026 1
7.798 -5.128 -2.046 6
8.367 -5.479 -2.031 3
0 0 0 50
9.912 -6.45 -2.026 2
10.901 -7.077 -2.024 2
12.075 -7.826 -2.018 1
7.768 -5.12 -2.046 5
8.333 -5.468 -2.031 3
9.069 -5.929 -2.035 2
9.887 -6.443 -2.03 2
10.869 -7.065 -2.028 2
12.013 -7.794 -2.019 1
7.691 -5.082 -2.041 3
8.227 -5.41 -2.021 5
8.994 -5.889 -2.035 3
9.797 -6.392 -2.029 2
0 0 0 50
11.851 -7.691 -2.011 2
7.652 -5.058 -2.038 3
8.19 -5.386 -2.019 7
8.96 -5.868 -2.035 3
9.768 -6.372 -2.031 3
10.773 -7.005 -2.037 2
11.779 -7.639 -2.008 2
0 0 0 50
8.165 -5.368 -2.02 7
8.929 -5.843 -2.035 3
9.714 -6.33 -2.027 3
10.74 -6.976 -2.038 2
11.71 -7.584 -2.004 1
7.586 -5.01 -2.033 2
0 0 0 50
8.898 -5.816 -2.034 3
9.708 -6.318 -2.033 3
10.706 -6.942 -2.039 2
11.676 -7.548 -2.006 2
7.572 -4.994 -2.034 3
8.123 -5.327 -2.021 13
8.89 -5.8 -2.038 3
9.669 -6.28 -2.03 2
0 0 0 50
11.638 -7.505 -2.006 2
7.547 -4.968 -2.032 3
8.11 -5.306 -2.022 14
8.862 -5.768 -2.037 3
9.637 -6.243 -2.029 2
10.613 -6.847 -2.034 1
11.636 -7.481 -2.012 3
7.529 -4.943 -2.031 3
0 0 0 50
8.839 -5.735 -2.035 3
9.623 -6.214 -2.031 3
10.624 -6.831 -2.04 2
11.634 -7.453 -2.017 3
7.517 -4.919 -2.032 3
8.102 -5.269 -2.028 15
8.814 -5.699 -2.034 2
9.603 -6.178 -2.031 3
0 0 0 50
11.627 -7.417 -2.021 3
7.514 -4.899 -2.033 2
8.088 -5.239 -2.027 16
8.803 -5.668 -2.034 3
9.591 -6.143 -2.032 2
10.554 -6.728 -2.035 2
11.593 -7.36 -2.019 4
7.493 -4.865 -2.03 3
0 0 0 50
8.793 -5.635 -2.035 3
9.594 -6.114 -2.035 3
10.512 -6.667 -2.029 2
11.59 -7.318 -2.021 3
7.492 -4.84 -2.031 3
0 0 0 50
8.794 -5.606 -2.036 3
9.559 -6.059 -2.029 3
10.508 -6.626 -2.031 3
11.605 -7.286 -2.026 3
7.472 -4.801 -2.027 3
8.077 -5.153 -2.03 16
8.783 -5.566 -2.035 3
0 0 0 50
10.498 -6.58 -2.031 5
11.57 -7.217 -2.022 4
7.476 -4.774 -2.028 3
8.066 -5.113 -2.028 14
8.785 -5.532 -2.035 3
9.555 -5.98 -2.03 3
10.519 -6.548 -2.035 3
11.57 -7.167 -2.022 4
0 0 0 50
8.077 -5.086 -2.03 14
8.767 -5.482 -2.031 3
9.557 -5.939 -2.03 3
10.493 -6.485 -2.03 3
0 0 0 50
7.437 -4.684 -2.016 9
8.08 -5.051 -2.029 13
8.778 -5.448 -2.033 3
9.559 -5.895 -2.029 4
10.504 -6.441 -2.031 3
11.557 -7.05 -2.019 4
7.451 -4.657 -2.018 13
8.077 -5.009 -2.027 14
8.788 -5.411 -2.033 3
0 0 0 50
10.478 -6.37 -2.024 3
11.572 -6.999 -2.02 4
7.476 -4.634 -2.023 17
8.084 -4.971 -2.027 17
8.792 -5.367 -2.032 3
9.591 -5.816 -2.032 3
10.498 -6.327 -2.026 3
11.575 -6.937 -2.018 4
0 0 0 50
8.082 -4.926 -2.023 16
8.815 -5.333 -2.034 4
9.581 -5.756 -2.027 3
10.51 -6.275 -2.025 3
11.583 -6.877 -2.016 5
7.523 -4.58 -2.029 19
8.093 -4.886 -2.022 16
0 0 0 50
9.605 -5.715 -2.028 4
10.524 -6.222 -2.024 3
11.605 -6.821 -2.016 4
7.542 -4.546 -2.03 15
0 0 0 50
8.846 -5.247 -2.033 4
9.621 -5.666 -2.027 4
10.571 -6.185 -2.029 3
11.637 -6.769 -2.017 4
7.571 -4.517 -2.033 12
8.117 -4.802 -2.019 13
8.842 -5.19 -2.027 4
9.64 -5.617 -2.026 4
0 0 0 50
11.651 -6.703 -2.014 4
7.601 -4.487 -2.036 6
8.126 -4.755 -2.016 10
8.886 -5.158 -2.032 3
9.66 -5.566 -2.025 4
10.591 -6.062 -2.021 3
11.693 -6.651 -2.016 4
0 0 0 50
8.152 -4.716 -2.016 6
8.906 -5.111 -2.03 5
9.701 -5.526 -2.027 3
10.619 -6.007 -2.02 3
11.733 -6.596 -2.016 4
7.613 -4.391 -2.027 3
8.175 -4.674 -2.015 6
8.932 -5.064 -2.029 4
0 0 0 50
10.653 -5.953 -2.02 4
11.755 -6.526 -2.012 5
7.633 -4.348 -2.025 3
8.208 -4.634 -2.017 6
8.95 -5.011 -2.026 4
9.755 -5.419 -2.024 4
10.705 -5.906 -2.022 4
11.809 -6.472 -2.014 4
0 0 0 50
8.248 -4.597 -2.019 6
9 -4.973 -2.03 4
9.781 -5.362 -2.021 4
10.766 -5.861 -2.025 4
11.846 -6.405 -2.011 4
7.678 -4.261 -2.022 3
8.307 -4.567 -2.025 4
9.022 -4.919 -2.026 4
9.839 -5.322 -2.025 4
0 0 0 50
11.907 -6.351 -2.012 4
7.724 -4.228 -2.025 3
8.328 -4.516 -2.022 3
9.045 -4.863 -2.023 3
9.868 -5.264 -2.021 4
10.816 -5.726 -2.016 4
11.936 -6.276 -2.007 4
7.758 -4.185 -2.025 3
8.366 -4.472 -2.022 4
0 0 0 50
9.912 -5.211 -2.021 4
10.902 -5.688 -2.022 4
11.978 -6.206 -2.004 4
7.776 -4.134 -2.021 3
8.399 -4.424 -2.02 3
9.133 -4.768 -2.023 4
9.952 -5.153 -2.019 4
10.939 -5.621 -2.018 4
12.059 -6.153 -2.007 3
0 0 0 50
8.433 -4.374 -2.019 3
9.184 -4.722 -2.024 5
10.007 -5.103 -2.019 4
10.981 -5.556 -2.015 4
12.011 -6.035 -1.987 3
7.85 -4.046 -2.02 3
8.495 -4.338 -2.023 4
9.268 -4.69 -2.032 8
0 0 0 50
11.025 -5.491 -2.012 5
12.043 -5.955 -1.981 3
7.889 -4.001 -2.02 3
8.523 -4.282 -2.019 3
9.302 -4.631 -2.029 15
10.084 -4.979 -2.013 4
11.087 -5.431 -2.011 4
12.191 -5.929 -1.993 4
0 0 0 50
8.568 -4.233 -2.019 4
9.329 -4.569 -2.023 17
10.146 -4.927 -2.014 4
11.135 -5.364 -2.008 4
12.321 -5.892 -2.002 5
7.968 -3.908 -2.018 3
8.608 -4.181 -2.017 4
9.361 -4.506 -2.019 18
10.199 -4.868 -2.012 5
0 0 0 50
12.365 -5.811 -1.996 4
8.017 -3.863 -2.019 3
8.649 -4.128 -2.015 4
9.456 -4.472 -2.027 11
10.204 -4.785 -2.001 5
11.287 -5.251 -2.01 5
12.469 -5.757 -1.999 4
8.063 -3.817 -2.019 3
8.703 -4.08 -2.016 4
0 0 0 50
10.244 -4.718 -1.996 8
11.339 -5.18 -2.006 5
12.55 -5.689 -1.999 5
8.099 -3.765 -2.017 3
8.756 -4.03 -2.016 4
9.501 -4.333 -2.012 4
10.329 -4.67 -2 19
11.45 -5.135 -2.013 7
12.629 -5.62 -1.997 5
8.144 -3.714 -2.016 3
0 0 0 50
9.572 -4.283 -2.015 4
10.43 -4.626 -2.007 23
11.476 -5.049 -2.004 4
12.674 -5.533 -1.99 5
8.189 -3.663 -2.015 3
8.85 -3.919 -2.013 4
9.621 -4.222 -2.012 4
10.487 -4.561 -2.004 23
11.534 -4.976 -2 5
12.787 -5.473 -1.993 5
0 0 0 50
8.894 -3.861 -2.01 3
9.661 -4.155 -2.008 4
10.572 -4.507 -2.007 23
11.627 -4.916 -2.002 5
12.848 -5.39 -1.988 6
8.282 -3.558 -2.013 3
8.952 -3.808 -2.011 4
9.72 -4.096 -2.007 4
0 0 0 50
11.667 -4.833 -1.995 4
12.935 -5.318 -1.987 5
8.332 -3.506 -2.013 3
9.009 -3.754 -2.011 4
9.795 -4.042 -2.009 4
10.758 -4.401 -2.015 9
11.682 -4.739 -1.984 7
13.021 -5.24 -1.985 5
8.383 -3.453 -2.012 4
0 0 0 50
9.857 -3.982 -2.009 4
10.741 -4.301 -1.998 5
11.75 -4.665 -1.981 10
13.172 -5.188 -1.993 8
8.418 -3.393 -2.008 4
9.104 -3.632 -2.006 4
9.909 -3.916 -2.006 4
10.821 -4.239 -2 5
0 0 0 50
13.217 -5.092 -1.985 4
8.492 -3.347 -2.013 3
9.156 -3.573 -2.005 3
9.962 -3.85 -2.003 4
10.869 -4.163 -1.994 4
11.968 -4.545 -1.989 24
13.28 -5.004 -1.979 4
8.523 -3.283 -2.008 3
9.223 -3.518 -2.007 3
0 0 0 50
10.935 -4.093 -1.993 4
12.074 -4.481 -1.992 20
13.377 -4.925 -1.979 4
8.57 -3.225 -2.006 3
9.258 -3.449 -2.001 3
10.081 -3.719 -2 4
10.997 -4.021 -1.991 4
12.174 -4.413 -1.994 9
0 0 0 50
8.624 -3.169 -2.006 3
9.33 -3.393 -2.004 3
10.147 -3.655 -2.001 4
11.072 -3.951 -1.99 4
12.303 -4.352 -2 9
13.476 -4.728 -1.963 7
8.681 -3.111 -2.007 3
9.372 -3.324 -2 4
10.198 -3.582 -1.997 4
11.138 -3.876 -1.988 4
12.277 -4.236 -1.982 5
0 0 0 50
8.725 -3.049 -2.005 4
9.432 -3.262 -2 3
10.278 -3.52 -2 4
11.211 -3.804 -1.988 4
12.355 -4.155 -1.98 4
13.716 -4.575 -1.968 5
8.772 -2.986 -2.003 3
9.474 -3.193 -1.997 3
0 0 0 50
11.281 -3.73 -1.987 4
12.438 -4.076 -1.979 4
13.791 -4.482 -1.964 5
8.811 -2.921 -2 3
9.535 -3.129 -1.997 3
10.391 -3.376 -1.996 4
11.339 -3.65 -1.984 5
0 0 0 50
13.905 -4.398 -1.965 5
8.873 -2.862 -2.002 3
9.589 -3.062 -1.996 3
10.442 -3.301 -1.993 4
11.413 -3.574 -1.983 4
12.567 -3.9 -1.972 4
13.972 -4.3 -1.96 5
8.907 -2.795 -1.998 4
9.63 -2.99 -1.992 3
0 0 0 50
11.485 -3.497 -1.983 4
12.638 -3.814 -1.97 4
14.056 -4.205 -1.958 5
8.939 -2.725 -1.993 3
9.686 -2.922 -1.992 3
10.569 -3.156 -1.992 4
11.545 -3.414 -1.981 5
12.709 -3.724 -1.967 4
14.136 -4.106 -1.954 5
0 0 0 50
9.735 -2.85 -1.99 4
10.616 -3.076 -1.989 4
11.606 -3.331 -1.978 4
12.795 -3.639 -1.968 4
14.232 -4.013 -1.954 5
9.032 -2.592 -1.991 3
0 0 0 50
10.652 -2.994 -1.984 4
11.656 -3.244 -1.975 4
12.856 -3.546 -1.964 5
14.299 -3.908 -1.95 5
9.074 -2.524 -1.99 4
9.825 -2.703 -1.985 4
10.722 -2.92 -1.985 4
11.72 -3.16 -1.974 5
0 0 0 50
14.384 -3.808 -1.948 4
9.125 -2.457 -1.99 4
9.87 -2.629 -1.984 4
10.748 -2.833 -1.979 4
11.775 -3.074 -1.971 5
12.994 -3.361 -1.96 4
14.449 -3.704 -1.944 4
9.16 -2.386 -1.987 4
9.918 -2.556 -1.983 4
10.804 -2.754 -1.978 5
11.839 -2.989 -1.97 5
0 0 0 50
14.522 -3.599 -1.942 5
9.199 -2.316 -1.986 4
9.951 -2.477 -1.979 4
10.842 -2.671 -1.974 4
11.903 -2.903 -1.97 5
13.133 -3.173 -1.958 5
14.613 -3.498 -1.942 4
9.231 -2.243 -1.983 4
9.993 -2.401 -1.977 4
0 0 0 50
11.927 -2.806 -1.963 4
13.2 -3.076 -1.957 5
14.697 -3.394 -1.941 4
9.263 -2.169 -1.98 3
10.021 -2.32 -1.973 3
10.934 -2.505 -1.971 3
11.981 -2.717 -1.962 4
13.267 -2.979 -1.956 5
0 0 0 50
9.306 -2.098 -1.98 3
10.078 -2.246 -1.975 3
10.983 -2.422 -1.97 3
12.019 -2.623 -1.958 4
13.299 -2.874 -1.95 4
14.825 -3.173 -1.936 4
9.353 -2.027 -1.982 2
10.11 -2.166 -1.973 3
11.019 -2.335 -1.967 3
12.059 -2.529 -1.955 5
0 0 0 50
14.872 -3.057 -1.931 4
9.392 -1.954 -1.981 2
10.137 -2.085 -1.97 3
11.054 -2.248 -1.965 3
12.098 -2.435 -1.952 4
13.361 -2.661 -1.94 4
14.938 -2.946 -1.93 4
9.412 -1.877 -1.978 2
10.176 -2.006 -1.969 3
0 0 0 50
12.143 -2.341 -1.951 4
13.408 -2.557 -1.938 4
14.952 -2.824 -1.922 4
9.444 -1.801 -1.977 2
10.217 -1.925 -1.969 3
11.124 -2.072 -1.961 3
12.171 -2.243 -1.947 4
13.437 -2.45 -1.934 4
15.025 -2.711 -1.923 4
9.525 -1.735 -1.987 3
0 0 0 50
11.177 -1.988 -1.963 4
12.209 -2.147 -1.946 4
13.491 -2.346 -1.933 4
15.057 -2.592 -1.918 4
9.512 -1.651 -1.977 3
10.288 -1.764 -1.968 3
11.205 -1.898 -1.961 4
0 0 0 50
13.568 -2.247 -1.937 4
15.104 -2.475 -1.917 4
9.521 -1.571 -1.973 3
10.309 -1.679 -1.966 3
11.213 -1.804 -1.955 3
12.287 -1.954 -1.944 4
13.587 -2.136 -1.933 4
15.096 -2.348 -1.908 4
9.541 -1.493 -1.971 3
0 0 0 50
11.251 -1.717 -1.956 3
12.311 -1.855 -1.942 4
13.603 -2.027 -1.929 4
15.162 -2.234 -1.91 4
9.567 -1.415 -1.971 2
10.344 -1.51 -1.961 3
11.289 -1.627 -1.957 4
12.329 -1.755 -1.939 4
13.608 -1.915 -1.923 4
15.197 -2.114 -1.908 4
0 0 0 50
10.374 -1.427 -1.962 3
11.308 -1.536 -1.955 3
12.345 -1.656 -1.936 4
13.64 -1.807 -1.923 4
15.216 -1.992 -1.905 4
9.587 -1.255 -1.966 3
10.38 -1.341 -1.958 3
11.319 -1.442 -1.953 4
12.366 -1.555 -1.935 4
0 0 0 50
15.234 -1.869 -1.902 4
9.622 -1.179 -1.969 3
10.382 -1.254 -1.955 3
11.347 -1.352 -1.953 3
12.387 -1.455 -1.934 4
13.671 -1.585 -1.918 3
15.26 -1.746 -1.901 3
0 0 0 50
10.408 -1.169 -1.956 3
11.327 -1.253 -1.946 3
12.4 -1.354 -1.932 4
13.692 -1.475 -1.917 4
15.262 -1.621 -1.898 4
9.632 -1.017 -1.964 3
10.417 -1.082 -1.955 3
11.355 -1.162 -1.948 4
12.406 -1.252 -1.93 4
13.715 -1.364 -1.917 4
0 0 0 50
9.64 -0.936 -1.963 3
10.423 -0.996 -1.953 3
11.352 -1.068 -1.945 4
12.416 -1.15 -1.929 4
13.75 -1.254 -1.919 5
15.271 -1.373 -1.893 5
9.65 -0.856 -1.963 3
10.422 -0.909 -1.951 3
11.333 -0.972 -1.939 4
12.422 -1.048 -1.928 4
0 0 0 50
15.257 -1.248 -1.89 3
9.64 -0.774 -1.959 3
10.425 -0.823 -1.95 3
11.349 -0.88 -1.941 4
12.413 -0.946 -1.925 4
13.729 -1.028 -1.913 4
15.284 -1.126 -1.892 4
9.651 -0.695 -1.96 3
10.418 -0.736 -1.947 3
0 0 0 50
12.414 -0.844 -1.924 4
13.724 -0.917 -1.912 4
15.258 -1.001 -1.888 4
9.65 -0.615 -1.959 3
10.42 -0.649 -1.947 3
11.348 -0.693 -1.939 3
12.433 -0.744 -1.927 4
13.699 -0.804 -1.908 4
15.239 -0.877 -1.885 4
0 0 0 50
10.402 -0.563 -1.943 3
11.331 -0.6 -1.936 3
12.395 -0.642 -1.921 4
13.691 -0.694 -1.907 4
15.23 -0.755 -1.884 3
9.636 -0.454 -1.956 3
10.4 -0.478 -1.943 3
11.347 -0.509 -1.939 4
0 0 0 50
13.676 -0.584 -1.906 4
15.207 -0.634 -1.883 3
9.617 -0.375 -1.953 4
10.394 -0.394 -1.943 3
11.324 -0.417 -1.936 4
12.371 -0.442 -1.919 4
13.664 -0.474 -1.905 3
15.19 -0.511 -1.882 4
0 0 0 50
10.369 -0.308 -1.94 4
11.307 -0.324 -1.934 4
12.346 -0.341 -1.917 4
13.63 -0.363 -1.902 4
15.154 -0.39 -1.88 4
9.591 -0.217 -1.95 3
10.361 -0.223 -1.94 3
0 0 0 50
12.32 -0.242 -1.915 4
13.574 -0.254 -1.897 3
15.085 -0.268 -1.874 4
9.571 -0.138 -1.948 3
10.327 -0.139 -1.935 3
11.252 -0.142 -1.929 3
12.302 -0.144 -1.914 4
0 0 0 50
15.052 -0.149 -1.873 4
9.559 -0.061 -1.948 3
10.322 -0.056 -1.937 3
11.225 -0.051 -1.927 4
12.27 -0.045 -1.913 4
13.523 -0.038 -1.896 4
15.015 -0.03 -1.872 4
9.545 0.016 -1.948 4
0 0 0 50
11.2 0.037 -1.926 3
12.226 0.051 -1.909 4
13.475 0.068 -1.893 4
14.988 0.087 -1.873 4
9.534 0.093 -1.949 3
10.279 0.108 -1.935 3
11.169 0.127 -1.925 4
12.189 0.148 -1.907 3
13.444 0.173 -1.893 3
0 0 0 50
9.509 0.17 -1.947 3
10.271 0.191 -1.937 3
11.15 0.216 -1.926 3
12.174 0.244 -1.91 4
13.396 0.278 -1.891 4
14.877 0.32 -1.869 3
9.481 0.246 -1.945 3
0 0 0 50
11.118 0.304 -1.924 3
12.145 0.34 -1.91 4
13.343 0.382 -1.889 4
14.824 0.436 -1.869 4
9.443 0.322 -1.942 3
10.211 0.354 -1.935 3
11.079 0.391 -1.923 3
0 0 0 50
13.311 0.486 -1.89 3
14.782 0.548 -1.869 4
9.428 0.396 -1.944 3
10.183 0.433 -1.935 3
11.041 0.476 -1.921 4
12.062 0.527 -1.908 4
13.261 0.587 -1.889 3
14.693 0.659 -1.865 4
0 0 0 50
10.146 0.513 -1.933 3
10.992 0.561 -1.918 3
12.008 0.619 -1.905 3
13.219 0.689 -1.89 3
14.648 0.771 -1.866 3
9.351 0.543 -1.938 2
10.103 0.591 -1.931 2
10.97 0.647 -1.92 4
11.954 0.711 -1.903 3
0 0 0 50
14.588 0.882 -1.866 3
9.345 0.617 -1.943 4
10.067 0.669 -1.93 3
10.909 0.729 -1.916 3
11.914 0.802 -1.903 3
13.099 0.887 -1.887 3
14.525 0.99 -1.866 3
0 0 0 50
10.011 0.744 -1.925 3
10.877 0.812 -1.917 4
11.858 0.89 -1.902 4
13.024 0.983 -1.884 3
14.413 1.093 -1.86 3
9.28 0.761 -1.941 3
9.992 0.822 -1.928 3
10.828 0.894 -1.916 4
11.803 0.978 -1.9 3
0 0 0 50
14.35 1.199 -1.86 3
9.229 0.829 -1.937 3
9.937 0.895 -1.925 3
10.798 0.975 -1.918 4
11.772 1.066 -1.903 3
12.928 1.174 -1.886 3
0 0 0 50
9.193 0.898 -1.937 3
9.908 0.969 -1.926 3
10.747 1.053 -1.916 3
11.71 1.149 -1.901 4
12.861 1.265 -1.884 3
14.224 1.402 -1.861 3
9.16 0.965 -1.937 3
9.857 1.04 -1.923 3
0 0 0 50
11.652 1.233 -1.9 3
12.802 1.357 -1.884 4
14.117 1.499 -1.857 4
9.12 1.033 -1.936 3
9.826 1.113 -1.925 3
10.647 1.207 -1.914 3
11.595 1.315 -1.899 4
12.725 1.445 -1.882 4
0 0 0 50
9.075 1.098 -1.933 3
9.764 1.182 -1.921 3
10.619 1.285 -1.917 4
11.545 1.399 -1.899 4
12.668 1.535 -1.883 4
13.982 1.696 -1.859 4
9.03 1.163 -1.932 3
9.749 1.255 -1.926 3
0 0 0 50
11.515 1.482 -1.903 5
12.61 1.623 -1.884 4
14.01 1.806 -1.872 6
8.996 1.229 -1.932 2
9.687 1.322 -1.922 3
10.509 1.433 -1.914 3
11.462 1.563 -1.903 4
12.582 1.716 -1.889 4
13.894 1.895 -1.867 14
8.936 1.29 -1.928 3
9.641 1.39 -1.921 3
0 0 0 50
11.409 1.641 -1.904 4
12.565 1.807 -1.896 16
13.81 1.987 -1.866 6
8.911 1.354 -1.93 3
9.605 1.457 -1.922 4
10.416 1.578 -1.915 3
11.429 1.73 -1.916 7
12.463 1.885 -1.891 18
0 0 0 50
8.869 1.415 -1.929 3
9.547 1.52 -1.919 3
10.359 1.647 -1.913 4
11.33 1.798 -1.909 18
12.376 1.963 -1.887 5
13.796 2.187 -1.885 7
8.847 1.479 -1.933 3
9.505 1.585 -1.919 3
10.324 1.719 -1.916 14
0 0 0 50
12.295 2.041 -1.885 5
13.65 2.264 -1.876 5
8.804 1.537 -1.931 3
9.479 1.652 -1.923 3
10.233 1.779 -1.908 18
11.187 1.941 -1.904 4
12.236 2.121 -1.886 5
13.516 2.341 -1.868 5
8.785 1.6 -1.936 3
0 0 0 50
10.152 1.84 -1.902 17
11.146 2.016 -1.906 4
12.147 2.194 -1.882 4
13.373 2.413 -1.859 4
8.766 1.663 -1.941 9
9.378 1.773 -1.92 16
10.113 1.907 -1.903 4
11.108 2.09 -1.909 4
12.04 2.262 -1.875 5
13.268 2.489 -1.855 7
0 0 0 50
9.301 1.827 -1.912 13
10.06 1.971 -1.902 4
11.048 2.16 -1.909 4
11.952 2.331 -1.871 5
13.204 2.573 -1.857 7
8.649 1.768 -1.931 23
9.304 1.896 -1.922 3
10.03 2.038 -1.906 5
10.996 2.228 -1.909 5
0 0 0 50
13.095 2.644 -1.851 8
8.582 1.818 -1.925 8
9.255 1.953 -1.92 5
10.027 2.109 -1.914 4
10.911 2.29 -1.904 5
11.871 2.485 -1.879 5
13.036 2.725 -1.853 7
8.569 1.877 -1.93 4
9.246 2.018 -1.927 5
9.98 2.171 -1.914 4
0 0 0 50
11.817 2.557 -1.879 6
12.948 2.797 -1.851 8
8.553 1.935 -1.935 4
9.254 2.086 -1.937 5
9.92 2.229 -1.911 4
10.791 2.417 -1.901 4
11.72 2.618 -1.873 7
12.879 2.871 -1.851 8
8.534 1.991 -1.939 4
0 0 0 50
9.876 2.287 -1.911 4
10.663 2.462 -1.887 2
11.648 2.682 -1.871 7
12.809 2.943 -1.851 8
8.507 2.045 -1.941 4
9.119 2.182 -1.925 4
9.824 2.343 -1.91 4
10.637 2.528 -1.891 6
0 0 0 50
12.737 3.012 -1.85 8
8.462 2.092 -1.938 4
9.072 2.234 -1.923 5
9.756 2.393 -1.904 4
10.577 2.587 -1.889 6
11.546 2.816 -1.873 7
12.691 3.088 -1.852 9
8.419 2.14 -1.936 3
0 0 0 50
9.731 2.454 -1.908 6
10.533 2.647 -1.889 6
11.483 2.877 -1.871 7
12.619 3.154 -1.851 8
8.384 2.188 -1.935 4
8.969 2.33 -1.917 5
9.678 2.505 -1.905 6
10.476 2.702 -1.887 6
11.434 2.94 -1.871 7
0 0 0 50
8.34 2.233 -1.932 3
8.925 2.379 -1.915 5
9.645 2.56 -1.906 6
10.422 2.756 -1.885 6
11.364 2.997 -1.868 7
12.495 3.286 -1.849 7
8.304 2.278 -1.931 3
8.876 2.424 -1.911 5
9.591 2.608 -1.902 5
0 0 0 50
11.313 3.056 -1.867 7
12.431 3.349 -1.848 7
8.256 2.319 -1.926 3
8.837 2.47 -1.91 5
9.553 2.659 -1.902 5
0 0 0 50
11.267 3.115 -1.867 7
12.395 3.417 -1.85 6
8.221 2.362 -1.925 3
8.797 2.515 -1.907 5
9.506 2.706 -1.899 5
10.296 2.92 -1.883 6
11.229 3.174 -1.867 6
12.348 3.481 -1.85 7
8.145 2.392 -1.913 4
0 0 0 50
9.473 2.756 -1.898 5
10.254 2.972 -1.882 6
11.185 3.23 -1.866 6
12.326 3.55 -1.853 6
8.101 2.429 -1.908 3
8.721 2.602 -1.903 5
9.421 2.798 -1.894 5
10.224 3.025 -1.882 6
11.146 3.286 -1.866 6
12.311 3.619 -1.857 6
0 0 0 50
8.7 2.649 -1.904 5
9.383 2.844 -1.892 5
10.172 3.071 -1.879 6
11.107 3.341 -1.865 6
12.27 3.68 -1.857 8
8.037 2.507 -1.904 6
8.663 2.689 -1.901 5
0 0 0 50
10.142 3.121 -1.878 6
11.095 3.402 -1.868 7
11.877 3.631 -1.803 7
8.01 2.546 -1.902 6
8.645 2.733 -1.902 4
9.332 2.937 -1.891 5
10.118 3.171 -1.878 5
11.062 3.454 -1.867 6
11.697 3.641 -1.781 11
0 0 0 50
8.623 2.775 -1.901 5
9.3 2.979 -1.889 5
10.089 3.218 -1.877 6
11.049 3.511 -1.869 7
11.669 3.696 -1.78 19
7.965 2.62 -1.899 5
8.596 2.813 -1.898 5
0 0 0 50
10.077 3.268 -1.879 6
11.036 3.566 -1.871 7
11.652 3.753 -1.781 22
7.951 2.659 -1.899 5
8.579 2.853 -1.898 5
9.258 3.065 -1.887 5
10.06 3.316 -1.879 6
0 0 0 50
11.644 3.811 -1.782 19
7.937 2.695 -1.899 5
8.577 2.897 -1.9 5
9.247 3.108 -1.888 5
10.037 3.36 -1.877 6
10.989 3.664 -1.869 7
11.64 3.869 -1.784 19
7.918 2.729 -1.897 3
8.555 2.933 -1.898 4
0 0 0 50
10.027 3.407 -1.877 5
10.969 3.712 -1.867 6
11.624 3.92 -1.783 17
7.911 2.766 -1.897 5
8.548 2.972 -1.898 4
9.216 3.189 -1.885 6
10.017 3.451 -1.877 5
10.963 3.763 -1.867 6
0 0 0 50
7.907 2.802 -1.897 3
8.538 3.009 -1.897 5
9.219 3.233 -1.887 5
10.015 3.497 -1.877 6
10.942 3.806 -1.865 5
11.327 3.927 -1.74 10
7.899 2.835 -1.896 3
0 0 0 50
9.211 3.272 -1.886 5
10.008 3.54 -1.876 6
10.93 3.851 -1.862 5
10.902 3.828 -1.674 8
7.891 2.866 -1.894 3
8.539 3.085 -1.898 4
9.202 3.308 -1.884 6
10.011 3.583 -1.876 7
0 0 0 50
10.978 3.9 -1.685 8
7.887 2.898 -1.893 3
8.518 3.112 -1.893 4
9.206 3.347 -1.885 6
9.843 3.563 -1.844 13
10.936 3.943 -1.862 6
10.501 3.773 -1.61 3
7.892 2.93 -1.894 4
0 0 0 50
9.227 3.39 -1.887 6
9.743 3.564 -1.824 14
11.015 4.014 -1.873 8
10.396 3.775 -1.592 5
7.887 2.958 -1.891 3
8.534 3.183 -1.894 4
9.229 3.425 -1.886 5
9.677 3.576 -1.809 13
11.008 4.052 -1.87 30
0 0 0 50
7.901 2.991 -1.893 5
8.536 3.213 -1.892 4
9.244 3.463 -1.887 5
9.65 3.599 -1.802 16
10.918 4.056 -1.851 36
10.132 3.751 -1.546 10
7.902 3.017 -1.891 3
8.553 3.248 -1.893 4
0 0 0 50
9.624 3.62 -1.793 16
10.831 4.058 -1.832 27
9.986 3.729 -1.52 3
7.911 3.045 -1.89 4
8.561 3.277 -1.893 4
9.292 3.539 -1.89 5
9.624 3.649 -1.79 15
10.832 4.091 -1.828 22
9.884 3.721 -1.501 4
0 0 0 50
8.568 3.304 -1.89 4
9.324 3.577 -1.892 6
9.633 3.679 -1.787 12
9.723 3.699 -1.636 2
9.726 3.688 -1.471 2
7.946 3.101 -1.891 4
8.585 3.332 -1.889 4
9.341 3.607 -1.891 6
0 0 0 50
9.718 3.722 -1.63 11
9.719 3.71 -1.465 9
7.962 3.126 -1.89 4
8.606 3.36 -1.889 4
9.359 3.636 -1.889 6
9.659 3.736 -1.781 15
9.721 3.745 -1.625 11
0 0 0 50
7.979 3.149 -1.889 4
8.632 3.388 -1.889 4
9.378 3.663 -1.886 6
9.666 3.759 -1.776 14
9.617 3.725 -1.601 12
9.624 3.716 -1.439 10
8.003 3.173 -1.889 4
8.663 3.416 -1.89 4
9.425 3.698 -1.889 6
0 0 0 50
9.617 3.743 -1.594 11
9.62 3.732 -1.431 10
8.018 3.191 -1.886 4
8.695 3.442 -1.89 4
9.468 3.73 -1.891 8
9.918 3.89 -1.807 11
9.613 3.756 -1.586 11
9.615 3.745 -1.423 12
0 0 0 50
8.73 3.467 -1.89 5
9.501 3.755 -1.889 10
10.142 3.991 -1.84 15
9.507 3.727 -1.561 1
9.604 3.753 -1.414 6
8.106 3.245 -1.894 4
8.769 3.492 -1.891 5
9.511 3.769 -1.883 14
0 0 0 50
9.491 3.731 -1.55 10
9.491 3.719 -1.388 3
8.131 3.262 -1.891 3
8.814 3.517 -1.892 5
9.531 3.784 -1.878 19
9.884 3.908 -1.775 9
9.483 3.736 -1.54 7
9.49 3.726 -1.379 14
8.177 3.284 -1.894 4
8.855 3.538 -1.892 5
0 0 0 50
9.858 3.903 -1.761 8
9.477 3.739 -1.53 6
9.477 3.727 -1.368 11
8.21 3.3 -1.893 4
8.892 3.555 -1.891 5
9.538 3.795 -1.86 32
9.905 3.924 -1.759 8
9.489 3.746 -1.522 6
9.485 3.733 -1.36 10
8.252 3.316 -1.893 4
0 0 0 50
9.546 3.798 -1.851 40
9.956 3.945 -1.758 8
9.489 3.746 -1.512 6
9.475 3.729 -1.349 11
8.29 3.329 -1.893 4
8.971 3.584 -1.888 5
9.546 3.796 -1.841 40
9.939 3.935 -1.743 6
9.482 3.741 -1.5 6
0 0 0 50
8.338 3.344 -1.894 4
9.015 3.596 -1.887 5
9.548 3.792 -1.83 36
9.529 3.768 -1.661 6
9.491 3.74 -1.491 8
9.484 3.725 -1.329 15
8.386 3.356 -1.895 4
9.068 3.61 -1.887 5
0 0 0 50
9.496 3.748 -1.644 3
9.484 3.729 -1.479 14
9.481 3.717 -1.318 5
8.426 3.363 -1.893 4
9.122 3.622 -1.887 5
9.567 3.781 -1.811 24
9.487 3.734 -1.631 7
9.479 3.718 -1.467 3
9.6 3.754 -1.323 4
8.484 3.375 -1.895 4
0 0 0 50
9.585 3.776 -1.802 20
9.581 3.759 -1.635 5
9.614 3.759 -1.476 10
9.613 3.747 -1.313 14
8.529 3.379 -1.894 4
9.221 3.634 -1.884 5
9.603 3.767 -1.793 16
9.599 3.751 -1.626 7
0 0 0 50
9.609 3.731 -1.301 13
8.576 3.381 -1.892 4
9.283 3.642 -1.884 6
9.636 3.763 -1.787 15
9.609 3.738 -1.616 10
9.615 3.727 -1.453 6
9.61 3.715 -1.29 14
8.631 3.385 -1.893 5
9.357 3.652 -1.887 6
0 0 0 50
9.654 3.735 -1.611 7
9.68 3.733 -1.45 16
9.696 3.728 -1.289 12
8.68 3.384 -1.892 4
9.433 3.659 -1.89 9
0 0 0 50
9.701 3.732 -1.607 11
9.699 3.718 -1.441 16
9.705 3.71 -1.278 13
8.735 3.383 -1.892 5
9.487 3.655 -1.888 17
9.694 3.719 -1.76 14
9.712 3.711 -1.596 7
9.702 3.695 -1.429 4
0 0 0 50
8.779 3.375 -1.889 4
9.507 3.637 -1.879 22
9.727 3.704 -1.753 2
9.812 3.722 -1.6 3
9.861 3.728 -1.44 14
9.851 3.714 -1.273 16
8.831 3.368 -1.889 4
9.534 3.618 -1.872 22
10.323 3.901 -1.847 7
0 0 0 50
9.981 3.744 -1.445 15
9.981 3.734 -1.277 18
8.893 3.362 -1.89 5
9.547 3.591 -1.861 21
10.479 3.925 -1.861 7
11.445 4.271 -1.837 7
10.117 3.763 -1.452 6
10.112 3.751 -1.282 11
0 0 0 50
9.557 3.562 -1.85 23
10.584 3.928 -1.865 6
10.139 3.748 -1.614 0
12.792 4.713 -1.819 6
10.225 3.757 -1.283 0
8.996 3.335 -1.887 5
9.628 3.553 -1.851 12
10.68 3.924 -1.869 5
0 0 0 50
10.22 3.729 -1.441 0
14.363 5.226 -1.785 4
9.072 3.328 -1.89 5
9.73 3.552 -1.858 16
10.756 3.91 -1.868 6
10.379 3.758 -1.626 4
10.358 3.739 -1.448 1
10.382 3.737 -1.278 0
9.116 3.306 -1.887 5
9.861 3.559 -1.87 9
0 0 0 50
10.528 3.77 -1.636 4
10.497 3.747 -1.455 1
10.607 3.776 -1.293 0
9.157 3.281 -1.883 5
9.979 3.559 -1.88 6
10.89 3.868 -1.864 6
0 0 0 50
10.637 3.752 -1.461 0
10.78 3.792 -1.301 0
9.218 3.262 -1.884 5
10.038 3.536 -1.878 6
10.968 3.847 -1.864 6
0 0 0 0
10.87 3.786 -1.48 1
10.895 3.785 -1.303 8
0 0 0 50
10.094 3.508 -1.876 6
11.052 3.825 -1.865 6
11.378 3.923 -1.727 10
11.007 3.783 -1.487 8
11.017 3.776 -1.305 16
9.337 3.215 -1.885 6
10.159 3.481 -1.876 6
11.115 3.793 -1.863 7
11.373 3.866 -1.714 9
0 0 0 50
11.135 3.763 -1.307 5
9.406 3.19 -1.887 6
10.226 3.453 -1.876 6
11.206 3.767 -1.865 7
11.69 3.915 -1.748 10
11.384 3.8 -1.512 4
11.409 3.799 -1.327 13
9.454 3.158 -1.886 5
10.275 3.416 -1.873 6
11.275 3.733 -1.864 7
0 0 0 50
11.527 3.789 -1.519 18
11.556 3.788 -1.332 8
9.509 3.125 -1.885 6
10.336 3.381 -1.873 7
11.358 3.699 -1.865 8
11.732 3.806 -1.729 22
11.721 3.791 -1.533 20
11.754 3.791 -1.343 20
0 0 0 50
10.397 3.344 -1.872 6
11.479 3.676 -1.872 9
12.111 3.864 -1.773 10
11.911 3.787 -1.546 31
11.965 3.794 -1.356 30
9.635 3.059 -1.889 6
10.458 3.305 -1.872 7
11.535 3.63 -1.87 17
12.502 3.919 -1.818 10
0 0 0 50
12.179 3.794 -1.369 1
9.676 3.016 -1.887 6
10.517 3.263 -1.872 7
11.578 3.576 -1.866 9
12.725 3.916 -1.838 9
12.435 3.814 -1.59 4
12.438 3.804 -1.387 1
9.743 2.98 -1.89 6
0 0 0 50
11.648 3.53 -1.866 9
12.835 3.875 -1.842 9
12.724 3.828 -1.616 4
12.81 3.843 -1.418 8
9.787 2.934 -1.889 5
10.63 3.171 -1.872 6
11.68 3.47 -1.861 8
12.911 3.821 -1.842 9
0 0 0 50
13.071 3.843 -1.436 23
9.842 2.89 -1.89 5
10.679 3.12 -1.87 6
11.747 3.417 -1.861 8
12.994 3.765 -1.843 10
13.669 3.948 -1.713 12
13.343 3.842 -1.455 10
9.905 2.847 -1.894 6
10.748 3.073 -1.874 6
0 0 0 50
13.069 3.706 -1.843 9
13.855 3.915 -1.726 18
13.71 3.862 -1.485 25
9.934 2.792 -1.891 6
10.795 3.019 -1.873 7
11.863 3.303 -1.86 8
13.154 3.647 -1.845 10
0 0 0 50
13.998 3.855 -1.507 26
10.002 2.746 -1.895 6
10.853 2.965 -1.874 7
11.93 3.244 -1.862 9
13.195 3.574 -1.841 10
14.366 3.876 -1.769 12
14.476 3.893 -1.548 29
10.045 2.693 -1.896 6
0 0 0 50
11.991 3.183 -1.863 9
13.258 3.504 -1.84 10
14.737 3.881 -1.806 13
14.857 3.899 -1.579 27
10.086 2.636 -1.896 6
10.958 2.849 -1.876 7
12.05 3.118 -1.863 8
13.293 3.425 -1.837 10
0 0 0 50
15.629 3.998 -1.652 16
10.137 2.581 -1.898 6
11.012 2.789 -1.878 7
12.11 3.052 -1.865 9
13.346 3.349 -1.836 10
14.975 3.743 -1.816 11
15.821 3.941 -1.664 29
10.176 2.521 -1.899 6
11.056 2.725 -1.878 7
0 0 0 50
13.396 3.27 -1.835 10
15.041 3.657 -1.816 13
15.856 3.841 -1.658 3
10.225 2.463 -1.901 4
11.095 2.658 -1.878 7
12.205 2.909 -1.864 9
13.443 3.189 -1.834 11
15.102 3.568 -1.815 13
0 0 0 50
10.227 2.392 -1.895 4
11.148 2.592 -1.881 7
12.241 2.831 -1.863 9
13.496 3.107 -1.834 11
15.155 3.474 -1.814 13
17.171 3.921 -1.78 11
10.247 2.323 -1.893 4
11.217 2.528 -1.886 7
0 0 0 50
13.568 3.027 -1.837 11
15.184 3.373 -1.811 13
17.265 3.82 -1.782 18
10.346 2.272 -1.906 4
11.206 2.446 -1.879 4
12.357 2.683 -1.869 9
13.623 2.942 -1.838 11
15.256 3.28 -1.813 14
0 0 0 50
10.421 2.213 -1.914 5
11.232 2.371 -1.878 4
12.408 2.604 -1.871 9
13.682 2.857 -1.841 11
15.341 3.188 -1.817 14
17.299 3.58 -1.772 13
10.455 2.145 -1.915 5
11.308 2.305 -1.885 5
12.438 2.52 -1.87 9
0 0 0 50
15.364 3.081 -1.814 13
17.331 3.459 -1.77 12
10.435 2.063 -1.907 5
11.429 2.245 -1.901 6
12.476 2.437 -1.871 8
13.773 2.675 -1.843 11
15.409 2.977 -1.814 13
17.372 3.34 -1.768 15
0 0 0 50
11.5 2.174 -1.908 6
12.521 2.352 -1.874 5
13.779 2.574 -1.839 11
15.436 2.868 -1.812 13
17.451 3.225 -1.772 14
10.456 1.912 -1.903 5
11.514 2.091 -1.906 7
12.569 2.268 -1.876 5
0 0 0 50
15.502 2.764 -1.816 12
17.494 3.103 -1.771 13
10.482 1.837 -1.904 23
11.524 2.006 -1.904 5
12.648 2.187 -1.884 5
13.946 2.396 -1.853 10
0 0 0 50
17.512 2.975 -1.769 11
10.509 1.764 -1.905 19
11.509 1.917 -1.898 6
12.68 2.098 -1.885 5
14.043 2.308 -1.862 7
15.605 2.549 -1.82 10
17.547 2.849 -1.769 11
10.583 1.696 -1.915 4
11.59 1.843 -1.908 23
0 0 0 50
14.156 2.219 -1.874 8
15.701 2.445 -1.828 8
17.599 2.723 -1.771 9
10.6 1.617 -1.915 4
11.655 1.763 -1.916 13
12.713 1.909 -1.884 20
14.166 2.111 -1.872 6
15.808 2.339 -1.837 8
17.71 2.602 -1.779 12
0 0 0 50
11.587 1.663 -1.902 4
12.774 1.819 -1.89 20
14.043 1.984 -1.853 10
15.949 2.237 -1.85 7
17.864 2.487 -1.791 10
10.598 1.452 -1.909 3
0 0 0 50
12.77 1.72 -1.887 5
14.138 1.888 -1.863 21
15.916 2.109 -1.844 5
18.012 2.368 -1.803 9
10.627 1.373 -1.912 3
11.588 1.484 -1.897 4
12.765 1.619 -1.884 5
14.113 1.774 -1.857 5
15.879 1.979 -1.837 14
0 0 0 50
10.648 1.293 -1.914 3
11.605 1.395 -1.897 4
12.753 1.518 -1.88 5
14.146 1.668 -1.86 6
15.945 1.863 -1.843 11
17.993 2.084 -1.797 17
10.664 1.212 -1.915 3
11.617 1.305 -1.897 4
0 0 0 50
14.131 1.556 -1.855 5
15.856 1.728 -1.831 5
18.177 1.963 -1.813 17
10.658 1.127 -1.912 3
11.641 1.217 -1.9 4
12.821 1.325 -1.886 5
14.136 1.444 -1.854 6
0 0 0 50
18.008 1.801 -1.795 5
10.685 1.045 -1.915 3
11.647 1.124 -1.899 4
12.833 1.224 -1.886 4
14.149 1.333 -1.855 4
15.924 1.483 -1.835 4
18.074 1.664 -1.8 4
0 0 0 50
11.676 1.035 -1.902 4
12.836 1.122 -1.885 4
14.187 1.223 -1.858 4
15.939 1.357 -1.836 4
18.083 1.519 -1.799 4
10.72 0.877 -1.918 4
11.661 0.939 -1.898 3
12.858 1.021 -1.887 3
14.215 1.111 -1.86 4
0 0 0 50
18.119 1.377 -1.801 4
10.738 0.793 -1.92 3
11.666 0.847 -1.898 4
12.866 0.918 -1.887 4
14.222 0.999 -1.86 4
0 0 0 50
18.127 1.232 -1.801 4
10.74 0.706 -1.919 4
11.701 0.755 -1.902 4
12.88 0.816 -1.888 4
14.246 0.886 -1.862 4
16.012 0.977 -1.84 4
18.151 1.088 -1.803 4
0 0 0 50
11.695 0.661 -1.9 4
12.891 0.713 -1.888 4
14.273 0.772 -1.864 4
16.043 0.85 -1.843 4
18.249 0.946 -1.811 4
10.771 0.535 -1.923 4
11.746 0.569 -1.907 4
0 0 0 50
14.302 0.658 -1.867 4
16.052 0.72 -1.843 4
18.243 0.796 -1.809 4
10.767 0.446 -1.921 4
11.748 0.473 -1.907 3
12.927 0.504 -1.891 4
14.304 0.541 -1.866 4
0 0 0 50
18.231 0.647 -1.807 4
10.78 0.359 -1.922 3
11.757 0.378 -1.907 4
12.949 0.4 -1.894 4
14.319 0.424 -1.867 4
16.09 0.458 -1.845 3
18.263 0.499 -1.809 4
10.808 0.272 -1.926 3
0 0 0 50
12.953 0.294 -1.893 4
14.335 0.308 -1.868 4
16.156 0.328 -1.852 4
18.3 0.349 -1.811 4
10.808 0.184 -1.925 3
11.775 0.186 -1.908 3
12.974 0.188 -1.895 4
0 0 0 50
16.127 0.195 -1.847 4
18.398 0.2 -1.82 4
10.811 0.094 -1.925 3
11.791 0.089 -1.91 3
12.99 0.081 -1.896 5
14.382 0.072 -1.872 4
16.179 0.061 -1.851 4
18.368 0.046 -1.816 4
0 0 0 50
11.812 -0.009 -1.912 3
12.993 -0.026 -1.896 4
14.403 -0.047 -1.874 4
16.173 -0.073 -1.85 4
18.425 -0.106 -1.82 4
10.824 -0.083 -1.926 3
11.823 -0.107 -1.913 3
13.021 -0.134 -1.899 4
0 0 0 50
16.21 -0.208 -1.852 4
18.477 -0.262 -1.823 4
10.866 -0.175 -1.932 3
11.848 -0.206 -1.916 3
13.038 -0.243 -1.9 4
14.439 -0.287 -1.876 4
16.268 -0.345 -1.858 3
18.536 -0.417 -1.827 4
0 0 0 50
11.854 -0.305 -1.916 4
13.061 -0.352 -1.902 4
14.488 -0.41 -1.881 4
16.318 -0.483 -1.862 3
18.498 -0.572 -1.822 4
10.875 -0.356 -1.932 3
11.861 -0.403 -1.916 4
0 0 0 50
14.518 -0.532 -1.883 4
16.321 -0.619 -1.861 3
18.555 -0.73 -1.825 4
10.893 -0.448 -1.934 3
11.885 -0.504 -1.919 3
13.115 -0.574 -1.908 4
14.516 -0.654 -1.881 3
16.35 -0.758 -1.862 3
18.606 -0.889 -1.828 4
0 0 0 50
11.922 -0.607 -1.924 4
13.135 -0.686 -1.909 4
14.557 -0.779 -1.885 4
16.378 -0.899 -1.863 4
18.678 -1.051 -1.833 4
10.923 -0.634 -1.937 3
11.919 -0.707 -1.922 3
13.14 -0.797 -1.908 4
14.565 -0.904 -1.884 4
16.378 -1.039 -1.861 3
0 0 0 50
10.933 -0.728 -1.938 3
11.945 -0.811 -1.925 4
13.171 -0.911 -1.911 4
14.629 -1.032 -1.891 4
16.454 -1.184 -1.867 4
18.732 -1.375 -1.833 4
10.943 -0.822 -1.938 3
11.957 -0.914 -1.925 4
13.195 -1.026 -1.913 4
14.626 -1.158 -1.888 4
0 0 0 50
18.808 -1.541 -1.837 3
10.954 -0.916 -1.939 3
11.979 -1.017 -1.927 4
13.211 -1.139 -1.914 4
14.641 -1.283 -1.888 3
16.538 -1.473 -1.871 3
18.797 -1.701 -1.833 4
0 0 0 50
12.004 -1.122 -1.929 4
13.213 -1.252 -1.912 3
14.709 -1.415 -1.894 3
16.592 -1.621 -1.875 3
18.883 -1.873 -1.838 3
10.983 -1.107 -1.942 3
12.012 -1.226 -1.929 4
13.265 -1.373 -1.918 3
0 0 0 50
16.603 -1.766 -1.873 3
18.966 -2.045 -1.842 4
11.007 -1.204 -1.944 3
12.043 -1.333 -1.933 4
13.31 -1.492 -1.922 3
14.761 -1.676 -1.896 3
16.674 -1.918 -1.878 3
0 0 0 50
11.034 -1.302 -1.948 4
12.056 -1.439 -1.933 4
13.296 -1.605 -1.918 3
14.786 -1.806 -1.896 3
16.727 -2.069 -1.881 4
19.171 -2.401 -1.853 4
11.044 -1.399 -1.948 3
12.078 -1.547 -1.934 3
0 0 0 50
14.828 -1.941 -1.899 3
16.753 -2.219 -1.879 4
19.175 -2.569 -1.849 4
11.059 -1.498 -1.949 3
12.09 -1.653 -1.934 3
13.363 -1.846 -1.922 3
14.852 -2.074 -1.899 3
16.793 -2.371 -1.88 3
19.301 -2.757 -1.857 4
11.065 -1.595 -1.948 3
0 0 0 50
13.396 -1.968 -1.924 3
14.881 -2.209 -1.899 3
16.862 -2.529 -1.884 3
19.356 -2.936 -1.856 4
11.079 -1.694 -1.949 3
12.117 -1.87 -1.934 3
13.427 -2.091 -1.926 3
14.956 -2.352 -1.905 3
16.936 -2.69 -1.888 4
0 0 0 50
11.095 -1.794 -1.95 3
12.147 -1.981 -1.936 3
13.441 -2.212 -1.925 3
14.987 -2.488 -1.906 3
17.027 -2.854 -1.893 4
19.471 -3.296 -1.857 4
11.131 -1.898 -1.954 3
12.192 -2.095 -1.941 4
0 0 0 50
15.051 -2.631 -1.91 3
17.036 -3.006 -1.889 4
19.61 -3.494 -1.864 4
11.134 -1.996 -1.952 3
12.204 -2.204 -1.94 4
13.492 -2.457 -1.926 3
15.103 -2.774 -1.913 3
17.103 -3.17 -1.892 3
0 0 0 50
11.155 -2.099 -1.954 3
12.234 -2.32 -1.942 3
13.569 -2.593 -1.934 3
15.166 -2.922 -1.916 3
17.181 -3.338 -1.895 3
19.71 -3.865 -1.86 4
11.179 -2.203 -1.956 4
12.255 -2.433 -1.943 3
13.608 -2.722 -1.936 3
0 0 0 50
17.274 -3.513 -1.9 3
20.023 -4.107 -1.883 6
11.196 -2.307 -1.956 3
12.282 -2.549 -1.944 3
13.635 -2.85 -1.936 3
0 0 0 50
17.26 -3.667 -1.893 3
20.014 -4.287 -1.875 19
11.225 -2.415 -1.959 3
12.317 -2.666 -1.947 3
13.705 -2.988 -1.942 3
15.328 -3.368 -1.923 3
17.323 -3.837 -1.894 3
19.831 -4.429 -1.85 11
11.248 -2.521 -1.961 3
12.345 -2.785 -1.948 3
13.734 -3.119 -1.943 3
0 0 0 50
17.422 -4.016 -1.899 3
20.112 -4.675 -1.869 4
11.287 -2.632 -1.965 3
12.376 -2.904 -1.95 3
13.768 -3.252 -1.943 3
15.42 -3.667 -1.925 3
17.709 -4.244 -1.924 10
0 0 0 50
11.301 -2.737 -1.965 3
12.404 -3.023 -1.951 3
13.806 -3.386 -1.945 3
15.464 -3.82 -1.926 3
17.618 -4.384 -1.908 16
20.39 -5.111 -1.879 4
11.338 -2.85 -1.969 3
12.459 -3.151 -1.957 3
13.821 -3.517 -1.943 3
0 0 0 50
17.485 -4.51 -1.887 9
20.4 -5.303 -1.871 4
11.355 -2.958 -1.969 3
12.473 -3.268 -1.956 3
13.881 -3.66 -1.947 3
15.597 -4.139 -1.932 3
17.752 -4.745 -1.909 3
20.551 -5.533 -1.877 4
0 0 0 50
12.508 -3.392 -1.958 3
13.926 -3.8 -1.949 3
15.653 -4.298 -1.933 3
17.821 -4.926 -1.909 3
20.645 -5.749 -1.877 4
11.406 -3.181 -1.973 3
12.54 -3.517 -1.96 3
13.981 -3.944 -1.953 3
15.71 -4.46 -1.935 3
0 0 0 50
20.803 -5.987 -1.883 5
11.43 -3.294 -1.975 3
12.568 -3.641 -1.961 3
14.016 -4.085 -1.953 3
15.756 -4.621 -1.935 3
17.973 -5.305 -1.912 4
20.881 -6.207 -1.88 5
11.459 -3.41 -1.977 4
0 0 0 50
14.055 -4.227 -1.955 3
15.798 -4.781 -1.935 3
18.03 -5.492 -1.911 4
21.111 -6.474 -1.892 6
11.472 -3.521 -1.977 3
12.633 -3.897 -1.964 3
14.123 -4.381 -1.959 3
15.886 -4.957 -1.94 4
18.136 -5.695 -1.915 4
21.087 -6.666 -1.88 5
11.503 -3.639 -1.98 3
0 0 0 50
14.126 -4.515 -1.956 4
15.934 -5.122 -1.94 4
18.251 -5.905 -1.92 4
21.238 -6.917 -1.884 5
11.535 -3.758 -1.983 3
12.701 -4.159 -1.968 3
14.195 -4.672 -1.961 3
15.99 -5.294 -1.941 3
18.23 -6.073 -1.91 4
21.474 -7.2 -1.896 6
0 0 0 50
12.84 -4.326 -1.986 6
14.247 -4.824 -1.963 3
16.041 -5.462 -1.942 3
18.368 -6.292 -1.918 4
21.377 -7.369 -1.878 5
11.566 -3.988 -1.983 3
12.808 -4.436 -1.978 10
14.307 -4.98 -1.968 3
16.147 -5.651 -1.95 3
0 0 0 50
21.436 -7.595 -1.874 7
11.574 -4.099 -1.982 3
12.812 -4.558 -1.976 11
14.302 -5.113 -1.963 3
16.148 -5.805 -1.944 3
18.563 -6.712 -1.924 4
21.31 -7.756 -1.853 8
11.613 -4.224 -1.987 3
12.713 -4.646 -1.958 9
14.375 -5.278 -1.969 3
16.216 -5.985 -1.947 3
18.637 -6.92 -1.925 4
0 0 0 50
11.723 -4.376 -2.004 7
12.866 -4.824 -1.978 3
14.413 -5.43 -1.97 3
16.299 -6.172 -1.951 3
18.679 -7.114 -1.922 4
21.099 -8.086 -1.817 10
11.668 -4.468 -1.993 13
12.904 -4.963 -1.982 2
14.461 -5.588 -1.973 3
16.32 -6.338 -1.949 3
0 0 0 50
20.604 -8.097 -1.766 9
11.66 -4.577 -1.99 15
12.926 -5.096 -1.982 3
14.493 -5.74 -1.974 3
16.353 -6.509 -1.948 3
15.22 -6.092 -1.555 3
15.275 -6.15 -1.302 11
11.605 -4.667 -1.979 8
0 0 0 50
14.492 -5.879 -1.971 3
14.949 -6.094 -1.777 39
14.859 -6.092 -1.513 5
14.726 -6.073 -1.25 14
